# 3D point list with one line of data per point:
#   POINT3D_ID, X, Y, Z, R, G, B, ERROR, TRACK[] as (IMAGE_ID, POINT2D_IDX)
# Number of points: 431, mean track length: 3.070842332613391
2227 6.1995462090887585 -1.5128983647273093 5.547305749157539 177 122 115 0.025712922011308634 8 2597 7 1152
2226 4.188249216507319 -1.5390154310264146 6.966842819309928 187 134 118 1.7648340990661415 6 1976 7 1150 3 3086
2225 7.056465852584823 -2.382587879213419 5.928264599860397 169 137 139 1.230319740827688 1 942 8 1463 7 1130
2224 7.697947485101404 -2.739987926669767 5.613007129789656 229 202 209 0.13577906452788935 8 1435 7 1101
2223 7.912480789369355 -2.1785919036495853 4.797532435591634 200 158 168 0.21867495995693215 8 1022 7 1087
2222 7.525498359978493 -3.1560461044419914 5.590029994061594 61 40 44 0.05200826275262195 8 1505 7 1079
2221 5.715091426735161 -2.839419353149654 6.31738427089345 181 127 115 0.6744702587147408 1 1829 8 1441 7 1069
2220 7.094891593253006 0.42910105419953276 6.33002770351478 111 66 45 0.48103978582988743 1 1140 8 1430 7 1062
2219 4.935968368284592 0.7377829076028611 7.090473218640343 127 61 37 0.15936130775883145 3 865 7 1055
2218 7.942179230543664 0.5813538539214791 6.07329696755713 92 35 18 1.464785377249929 1 1102 8 1418 7 1052
2217 5.092221708957204 0.7816015867036612 7.041549368583992 61 14 13 1.0448554566672208 6 10454 8 2271 7 1051
2216 7.682317329218354 0.02619172827830035 6.057017754718369 118 71 55 1.1020301560383459 1 755 8 1420 7 1047
2214 8.039316660539379 1.0564019521955372 5.39254396979683 106 63 47 1.188983292627877 8 2213 7 1019
2213 6.836971842509071 0.7836252184868677 6.415010032300755 216 219 176 0.8551287610051462 1 674 8 890 7 1010
2212 7.041971680657733 -0.8233213651575306 6.19051328902542 142 93 80 0.620425253813074 1 822 8 1299 7 991
2211 6.198531402131156 -0.6823680716814914 5.6566253920348135 153 95 81 0.7152036461861924 1 1253 8 1295 7 987
2210 7.79113350927626 -1.0766926392597673 5.8431196728034145 157 114 97 0.18673446085171838 8 1555 7 975
2209 4.879068745766736 -0.8591678264592946 6.849436981947244 163 102 81 1.882987949045761 8 1314 7 970 5 3829
2208 6.189548107376376 -0.8318719257316235 5.616636578217621 145 92 86 0.8258942340763125 8 1269 7 965 1 1422
2207 6.23075133829038 -0.5545343163963031 5.560777464617786 140 86 74 1.558085361223672 8 3490 7 943
2206 5.084648476644 -2.5048180300256035 6.4970058553498875 74 42 47 0.9147722222564596 1 870 3 891 8 1020 7 924
2205 5.325769178985757 3.829591269380859 7.362991462952267 90 46 26 1.272323055687935 1 393 8 708 7 901
2204 6.8404238131610935 2.372116620547929 4.335157705908172 174 164 11 0.7592602846400069 1 420 8 784 7 895
2203 7.136393390837087 2.332104647294195 4.204584721757614 179 212 227 1.913826222483025 1 638 8 5272 7 869
2202 6.1917666548567585 4.728522700004449 6.65481870745642 72 61 59 0.07870372781401998 8 1156 7 826
2201 6.103781973781089 4.739557632167491 6.615384710384041 96 85 81 0.440435175416502 8 1104 7 825
2200 5.915078705378275 2.161490346352453 6.944524688515465 84 35 18 1.4953070577456442 3 1140 7 808
2199 6.874446481455106 1.1610637563096222 6.241390062903352 56 146 212 1.6625367174920573 1 435 8 1363 7 797
2198 6.936546537322067 1.4677881211243105 6.033924411535794 63 120 217 1.3775861977385553 1 693 8 1211 7 782
2197 5.210613970714605 3.4354786539538344 7.303241369461557 105 62 43 0.5895626189532345 1 597 8 1085 7 760
2196 6.335686434741436 2.468390655112234 6.14630835903785 107 60 40 1.4088192952782308 1 607 8 521 7 733
2195 7.166529726883562 1.6124629387055733 3.8941526824943993 215 223 238 0.9728212674693882 1 399 8 1246 7 732
2194 5.889190568815301 -0.3196227684075402 6.545542022527683 140 79 58 1.288280395275071 1 494 8 849 7 723
2193 6.644556582799009 -0.6346064847468785 6.286553308047847 125 61 36 0.6217502435010395 1 504 8 828 7 706
2192 6.671958287884916 -0.6781392361217168 6.292554391323112 162 98 60 0.7182157644584378 1 507 8 876 7 703
2191 6.795231621548562 0.8189905568744317 6.428167075320109 34 13 8 0.7662915383330994 1 671 8 809 7 691
2190 7.868983506362445 -0.149150638030203 5.944459548741796 78 39 33 1.090656186905038 1 342 8 571 7 683
2189 8.08306016851603 0.34217892361257496 5.8558034780694985 128 70 32 0.06548816534979292 8 621 7 670
2186 6.869506680459721 -2.4473925264414307 6.064795735402234 184 146 137 0.5801991086741815 1 559 8 1024 7 659
2185 4.534120484346571 -3.673898623709008 10.761447104056566 154 132 151 0.09260075264307055 6 985 7 658
2184 6.978644469443778 -2.5743580246802793 6.044526362261919 60 34 31 0.7858566042132678 1 561 8 1019 7 654
2183 6.120539260123751 -1.603234052082904 5.62765255478506 193 135 124 1.0472011001631871 1 922 8 674 7 651
2182 7.522272272625986 -2.559654130844244 5.657230881908839 190 167 185 0.14122739435591322 8 1017 7 648
2181 6.900758036105339 -3.1684900187474385 5.895824435120236 60 31 24 0.7640303872228108 1 542 8 948 7 635
2180 4.691567064887621 -0.7775865155294336 6.897769866198587 136 73 66 1.4375343829954554 1 574 8 1298 7 633
2179 6.130013851036581 -1.4356410738872958 5.638760275548424 174 116 105 0.2783950578462329 1 545 8 555 7 616
2178 4.608187953049489 4.516034039396162 7.349392991949522 27 38 90 1.0546922059605706 1 412 8 469 7 602
2177 6.329694378297451 4.7188463446472655 6.7448014086984225 71 58 52 0.2748991940251048 8 736 7 592
2176 4.30632828567201 -2.028582921683039 5.674358222130389 161 144 162 1.3104212983438583 8 1026 7 577
2175 4.428864075721524 4.622705631629352 7.020669815385821 0 19 53 1.7553452881296077 3 421 8 462 7 566
2174 6.250239135382578 0.9807921838771648 5.886556142723426 137 80 60 1.3358756999486905 1 430 8 409 7 562
2173 7.937847031433537 0.3233191823528373 5.964337348926794 119 63 38 0.9903213742052296 1 454 8 577 7 537
2172 7.069585726445483 1.6037499024718915 6.129366883164637 54 110 201 1.0073946439824264 1 444 8 764 7 498
2171 7.340967926905201 1.5152809783518626 4.610243031071992 27 59 46 0.35878248967054255 1 267 8 758 7 485
2170 7.029386247513828 -2.6468011714353543 6.093578752945685 163 136 157 1.0824684337969008 1 357 8 1018 7 473
2169 5.004277383106843 3.79673134260634 7.5264154672520105 233 215 229 0.8998807959459715 1 395 8 712 7 456 6 702
2168 6.075484722431476 -3.461286205192535 5.308118316278329 210 149 146 1.593904543843949 1 479 8 645 7 452
2167 6.130389878130413 -2.8149047462176875 5.47215189850862 196 135 132 1.0118081489390431 1 365 8 950 7 451
2166 6.524922290154961 -3.6081240115723445 5.943044399823572 52 27 30 1.2770405880438978 1 481 8 642 7 449
2165 6.100104194740006 -3.1916094729362663 5.372344370291386 199 141 129 1.486693066170101 1 483 8 641 7 448
2164 7.15306833039928 -3.2890877287803235 5.89912608022011 137 123 148 0.8026686061477816 1 463 8 632 7 443
2163 5.377404090834457 -2.1258799361753784 6.575831245178525 156 108 108 1.4743753601821736 1 350 3 488 8 678 7 430
2162 7.762449518349794 0.08194134503601522 6.045478497246354 119 67 45 1.325077971667034 1 333 8 567 7 421
2161 7.740829950242861 -1.1964054946489162 5.944040583769197 141 96 93 0.6148606848116124 1 240 8 441 7 402
2160 7.189714734529238 1.8391805867855762 6.373284578984553 11 54 122 1.184049625881597 1 277 8 525 7 394
2159 6.764242255490217 1.0195467897923498 6.475283186280899 55 19 5 0.4497885227030671 1 305 8 283 7 377
2158 7.757941629133453 -2.1759807486581213 5.707694262323631 158 127 132 0.06104517984141959 8 455 7 327
2157 7.679385602589883 -2.1887801209064452 5.723020071599832 51 22 21 0.014831751579484208 8 458 7 326
2156 7.497717913408348 -3.111047475385974 5.386652114109602 116 114 138 1.8606772415109765 8 633 7 316
2154 6.2412621873909355 0.48313328874635236 5.868158383943991 123 67 50 0.18881756996752802 8 301 7 282
2153 7.688039348333053 -1.8008989944504983 5.834164505913822 160 120 128 0.3858219395428487 8 491 7 271
2152 5.838684228394684 -3.2716511010780427 6.2035183299727015 64 38 39 0.8377250311939012 1 262 8 315 7 258
2151 4.970998433747689 -3.0854513348060526 6.492498050690744 105 81 79 1.1544139164448595 1 266 8 320 7 257
2150 7.1602237976098015 1.6843593850566514 4.374813477819078 133 97 110 1.0780652308988807 1 137 8 361 7 242
2149 4.716910880783177 4.613088302124102 7.5062115694106595 137 133 131 0.7266174290835123 1 182 8 693 7 227
2148 6.572718374805981 -0.8675840593465858 6.2291096772938745 190 113 67 0.9038970603697951 1 169 8 285 7 217
2147 6.8388379868382145 -3.3354968302630574 5.990044009721409 46 26 26 0.7190840475708743 1 263 8 314 7 209
2146 7.605401747980782 -3.262609807047758 5.54737651202408 53 33 35 0.28093363593550547 8 313 7 208
2145 5.713867023483515 0.39235449217864554 6.790361371241064 83 44 36 0.7636605287587913 1 170 3 245 7 198
2144 5.5730162807321095 0.39845020397989406 6.866493000217974 71 34 28 1.703589441792374 1 171 3 244 7 197
2142 6.698355484216127 1.140763565003519 6.332718968863943 80 35 6 1.9165553158100967 1 211 8 166 7 172
2141 5.270859516367514 2.9620580962181204 7.224452524759666 76 37 22 1.6628058228564875 8 194 7 165
2140 7.668209637047163 0.4932598411096676 6.156240134427006 124 70 42 1.3360514566160706 1 135 8 145 7 140
2139 7.855036141784927 1.2286493242828822 6.290550966005633 0 0 0 0.09569629438819502 1 116 8 137
2138 5.882560621983975 -1.441353689299115 6.510220886352961 30 22 35 0.6574173165214453 1 93 8 236 7 103
2137 7.858604372917673 -0.7504909423615309 5.872839700418449 150 103 83 0.35403558569390386 8 150 7 98
2136 6.081096006471091 -0.5247051837219937 6.441972042916198 140 82 62 0.3924849936222632 8 97 7 97
2135 7.192595431130208 -0.14260909582772008 6.249093907030188 136 78 54 1.2394298992216413 1 84 8 102 7 96
2134 7.799225275036377 0.2280097786110903 6.112839802775213 92 45 29 1.1335277928091196 1 109 8 120 7 95
2133 7.790505767657149 0.43848873857043935 6.1197928504688095 59 22 16 0.9030240519041803 1 119 8 147 7 92
2131 7.787992312042758 0.7011478739194589 6.117077785892561 75 31 18 0.9099405129789594 1 43 8 80 7 58
2130 7.180947919306273 -2.811249437541134 5.236395474861956 202 190 215 1.7623876955884805 8 44 7 32
2129 6.922110393612798 -3.3122652133192036 6.007094455079567 111 90 101 0.6730360414190978 1 36 8 74 7 30
2128 3.260575041135691 2.790990988188852 7.925964050022359 116 82 44 1.342612507769227 3 6218 1 13376 4 6777 2 5650
2127 3.8902428601968277 4.418189653166102 7.929124948568764 55 46 7 2.4682253233936384 3 4594 1 13052 8 4657
2125 3.3973459950514746 0.9369040403741533 7.5483037794435495 245 255 219 1.0360594226083546 6 10743 1 9827 2 6565
2124 6.924644433122886 0.8154224335320607 6.439701903136358 117 70 0 0.715464952555978 8 8905 1 7276 7 3847
2123 3.7796691753562413 -2.435562630187044 7.002207930627578 190 172 160 0.6838165441880156 8 7564 1 6110 4 8198
2122 6.960806355820842 0.8151697579848752 6.437416859601662 179 127 52 0.2281320639365223 8 8110 1 4871 7 8506
2121 6.746485419420126 0.9426874844539362 6.404590080791834 24 15 1 0.9462504654599874 8 6067 1 4738
2120 6.991977547615465 1.5161129747922903 6.045028175930135 2 60 119 0.8309808512920521 8 6168 1 4414 7 4996
2119 6.870096571013835 0.8470908767863234 6.396922180861158 37 41 8 0.9591240584684543 8 4034 1 4239 7 3868
2118 6.854964279124768 0.7912051348152087 6.403130637396423 237 252 196 0.8668411723084165 8 8114 1 4227 7 8497
2117 7.3953879771423425 1.5051980473768043 4.726252487329619 5 73 39 0.7602755896077896 8 5728 1 3838 7 6433
2116 3.624140420031301 3.8264638673830524 7.956478774993651 103 77 59 0.5168452968623479 3 1762 1 3781 4 5462
2115 3.2902108788586975 3.843291366062602 8.12651842911709 210 208 211 0.5326399377050267 3 6726 1 3691 4 5457
2114 3.550403370380357 0.1937059524636489 7.36628547769412 151 99 60 2.8439722459139194 8 7884 1 3109
2113 6.221800566344128 -0.27706704083001255 5.736486161110025 164 123 93 0.8613225344397177 8 8507 1 3071 7 8752
2112 6.22327503986309 -0.3143313951671769 5.737586112321409 174 133 105 0.9445849162643508 8 8441 1 3055 7 3483
2111 3.4517977858880395 -1.4558277308641123 7.192878765061824 169 146 128 0.6410504572549722 8 7345 1 2942
2110 6.808929217498943 0.8077758046461254 6.398951089525776 33 41 19 0.9279947708224389 8 3676 1 2799 7 3860
2109 6.89027772999832 2.35711453047583 4.315500863383277 27 20 16 0.6014898784403832 8 7002 1 2721 7 5183
2108 6.784501320870082 0.8680985346467944 6.45933019698054 123 121 98 0.8445749984027059 8 3687 1 2508 7 2469
2107 7.199974149810645 2.5333994078032216 6.581303293495429 73 51 27 0.5963157517944548 8 5418 1 2395 7 4938
2106 7.370512634450911 1.511815389253594 4.710202002037218 110 190 153 0.5279462078024594 8 5036 1 2303 7 3081
2105 6.257413564097523 -0.11213314898120316 5.767005223749717 174 130 91 0.9831482862874353 8 3385 1 2138 7 1743
2104 6.932979325234583 0.8538840020219922 6.4405363649659915 126 77 11 1.4263509495233373 8 3679 1 1653 7 3344
2103 6.865298495083732 0.8031844668729349 6.382084211986944 60 44 8 0.88047235046544 8 3257 1 1647 7 2452
2102 6.817988551817857 0.7529126015356539 6.440472563803985 52 39 2 0.7432681950419874 8 2272 1 1641 7 2170
2101 7.643780146950664 -1.2730046937605612 5.920878099799012 168 140 129 1.2022708247551888 8 1535 1 1460 7 1644
2100 6.967494905382175 1.5342066110276327 6.025446763679828 65 140 223 1.0535289910054706 8 1877 1 1160 7 1591
2099 7.139150607220133 2.6290187361064588 6.605595321557754 48 30 16 0.23532539499215077 8 1226 1 977 7 915
2098 6.871713531676269 2.374659031773297 4.318088409561839 34 27 33 0.8750681009492193 8 2714 1 890 7 2074
2097 6.9037996717733705 2.3393364122408387 4.305281385629994 154 231 131 0.5114565053538005 8 4008 1 889 7 2077
2095 4.268677949023684 2.8955053357370355 7.59067604435733 109 75 40 0.659493273323811 8 1235 1 713 3 1219 6 1327 7 1463
2094 3.18626648247732 2.6600281682366704 7.9389340850108105 79 44 22 1.9674659497684766 3 1669 1 624 6 1386 5 344 2 278
2093 6.989000681692768 1.888998378023525 6.287468656728957 0 33 68 1.8830323036605685 8 754 1 452 7 382
2092 3.2278742328054406 2.9157560716122766 7.981291115423298 127 79 31 0.5504002000244421 3 474 1 448 6 360
2091 6.837964790872117 0.874462193163581 6.405014950019447 216 237 196 0.9022446738897615 8 609 1 425 7 526
2090 5.731606014260106 -2.0919111494058478 6.326884471330182 151 124 115 0.002523592340370975 8 453 1 358
2089 7.536275861717435 -1.0916456916169537 5.9837483437059715 168 131 109 1.1943947145142302 8 821 1 324 7 627
2088 7.5858305648959075 -1.0913747400164078 5.968800528660252 139 112 105 1.0447511759733557 8 655 1 322 7 628
2087 5.895752452265069 -2.174765531267398 6.3408502916204545 50 40 31 0.41089483720995784 8 457 1 229 7 347
2086 6.986397969600838 -0.3220068133941043 6.178706193216279 137 91 65 1.6990170955813257 8 207 1 128 7 147
2085 5.721266041751541 -3.271091329326208 6.338501966597231 64 59 54 0.8129469612102013 8 75 1 35 7 42
2084 3.40097325304585 2.523544323848004 7.806878876203501 161 166 132 0.2429044578773533 8 5929 1 13712 3 5999
2083 4.756309374628844 -0.5174264799505862 6.892305579174709 136 83 52 1.077413459696156 8 8588 1 11775 7 3652
2082 3.8303202325059074 -0.5918422455379957 7.368312426475979 127 83 46 2.605272501829258 3 821 1 11087
2081 5.918763037765086 0.8599659252443673 6.7570373151787715 135 83 46 0.5277798111416608 3 8038 8 8088
2080 5.929934970825939 0.3892711130771 7.019569295434529 51 24 3 1.8904961857965055 8 1389 1 10288
2079 3.5644602681842894 0.6280865577767283 7.473792956051028 126 72 25 0.5221096837834316 8 8191 1 10069
2078 3.3372415577030243 -2.751806850357297 7.063838868805572 190 175 169 0.3261679335340832 6 1824 1 9316
2075 5.750903267452965 -2.030728871208759 6.2345797775376575 162 137 131 2.0725034978010304 8 7391 1 8811 1 8805
2072 6.782448183685658 1.0038464245961867 6.375461781063317 43 49 24 0.6541714966803922 8 6039 1 7357 7 3723
2071 3.747948298230637 -1.4636305783484813 7.176514065171456 188 153 115 0.12663756573276974 8 4241 1 6973
2070 6.928104974122055 -2.1295598621991405 6.087753431967386 165 143 130 0.6938770778045703 8 7387 1 6749 7 7635
2069 6.825041043203884 -2.063422838759765 6.083368031064257 231 197 165 0.4279653602536368 8 9008 1 6731 7 7650
2068 3.4284336306109924 -3.6705189866585277 6.802922278580605 9 11 8 1.39860986556486 3 7390 1 6402 8 7204
2067 3.439653217591374 -3.532650602775425 6.83475210916996 32 31 10 1.474989972152696 3 7389 1 6397 8 7745
2066 6.9341488186606615 1.3968163055922724 6.028730219449044 69 161 248 1.4589279742277712 8 6300 1 5792 7 6669
2064 3.3465846112073434 2.5401065511715006 7.828003065942301 225 231 187 0.43060436404933317 3 5994 1 5708 6 8462
2063 3.8777763681458133 2.955709139156846 7.7240933094192075 30 19 0 1.7682200552970635 6 8671 8 5505 3 5800 1 5446 4 5095 2 5407
2062 3.7981284720344237 2.7613964226671084 7.725070416742263 59 55 8 0.6724604872267058 6 7227 8 5426 1 5324 3 4719 5 3483 2 1480
2061 7.22612498135924 1.244633943461904 4.169249384233574 76 0 17 0.5234162895668154 8 5193 1 5323 7 6410
2060 3.808573879119779 2.900390956006166 7.7398677845926525 70 68 31 0.5373110200405246 3 4579 1 5258 6 7151 8 5487 4 5134
2059 3.8115564425232575 2.8308600052245043 7.685938477380662 101 114 88 0.6267409395634438 8 6813 1 5201 3 6191
2058 3.595111007820081 1.4688981993369594 7.597904833117767 76 36 1 0.4133107449864325 8 6113 1 4760
2057 6.26642206227359 1.5134134070539398 6.674939343414338 98 48 0 1.4524376242045953 3 3420 1 4536 8 8986
2055 3.2481538803561825 2.710577091223175 7.957871577203599 89 67 51 0.5388299108225518 3 4760 1 4457 6 7238
2054 5.41008859487704 2.2408802966816657 7.142880046695712 137 83 36 0.845626410535137 8 5065 1 4444 7 4920 6 5009
2053 3.875507970582572 2.721674976886209 7.702393978904875 248 239 191 0.4013939415116613 6 7233 8 5436 1 4423 3 6166
2052 3.7985587908973364 2.704514802774812 7.721643527715084 97 76 17 0.5048631404706185 8 5441 1 4417 5 7774 2 1935
2051 3.4824319510086363 2.333148737081454 7.73367148778472 65 67 37 0.8746889328533085 3 4659 1 4411 8 5607 5 11013 2 10946
2050 3.487075362917687 2.5480512050311255 7.784239636340569 42 38 18 0.6189058568159914 8 5478 1 4402 3 4740
2049 6.185431011480894 0.39845389572294615 5.728027399462453 137 95 71 2.183423188624296 8 3774 1 4356 3 1258
2048 6.788614672341087 0.9260849071857475 6.424137617045546 24 30 23 0.8680750304300306 8 6062 1 4207 7 3700
2047 3.4066926144985454 1.122329717192573 7.591819642062689 89 93 58 0.6619870290031462 8 4033 1 4165 3 5915 6 12294
2046 7.307550067702774 2.116238060126976 4.0426391839136295 8 57 36 1.1398171940967836 8 6719 1 4044 7 5142
2045 6.889410254587953 2.8484030011903294 6.7010704801954155 34 19 3 0.11382291204695776 8 8888 1 3693
2044 6.835429468501361 -2.1885349806056524 6.053232672823527 52 23 5 0.553247032719771 8 4341 1 3481 7 4255
2043 3.858649684531196 -3.870322549429103 6.057203028703631 153 135 132 3.709857673084626 8 7115 1 3433
2040 3.652714526461997 -3.4980290263851948 6.820013968227839 60 47 41 2.1949537753399495 6 11690 1 3271 8 3958 2 6047
2039 3.46526026340908 -3.5827464972280665 6.794031193038097 75 80 57 1.165463518664981 3 7400 1 3262 6 11011 8 7714
2038 3.829768490277325 -0.1676481625539591 7.29229577575373 166 109 51 1.9423224106190407 8 3404 1 3194
2037 4.596267205876465 -0.5583970431222383 7.05983650274005 142 114 104 0.44127709087925765 8 3333 1 3166
2036 3.6565233802474313 -0.2935438348767595 7.315415813267064 150 168 93 1.1626483833397045 8 8492 1 3146 4 8939
2035 7.518869520726948 -1.2729722282405564 6.011021899991069 183 151 129 1.2893602129525041 8 8337 1 2976 7 7543
2034 4.572912933698307 -0.5958108274482378 7.0686223692660315 144 118 105 1.176325216991838 6 9947 1 2877 5 2046
2031 3.4975656129323984 2.5154899211249857 7.761118781079555 191 201 165 0.5974466194903857 6 7215 8 5448 1 2783 3 4678 4 7126
2030 3.874868605227048 2.8981888835921015 7.706734661157415 47 47 14 1.8909055992010413 6 7150 8 5492 3 4577 1 2775 5 5427 4 5133 2 4393
2029 4.648203927295857 1.1126362518339743 7.246831856125675 94 45 14 0.19437442506481925 8 3787 1 2728
2028 7.033458034906117 0.4041706270644055 6.487913642474357 104 63 35 1.3558669416024831 8 3798 1 2583 7 2277
2027 3.30084104860834 2.5234142811230758 7.828231694351311 237 245 196 0.943729770708288 3 3112 1 2484 6 7212 5 5414 4 5028
2026 6.904259817732067 0.7697023093898532 6.412386028217882 120 73 8 0.4187733419685162 8 8059 1 2389 7 3852
2025 3.8976758439252808 2.8076521152857636 7.692644385093354 228 238 204 0.6522947454468635 3 4731 1 2349 6 8350 8 5549
2024 4.011611846254219 2.7674879731767326 7.6713072410475975 149 108 62 0.8022093423943428 8 5531 1 2348 6 8374 3 2832
2023 3.852037208312834 2.790477696053689 7.695496563304631 236 251 211 1.40991578712928 6 7225 8 3067 1 2347 3 2802 4 5118 2 1472
2022 3.8650986595165286 2.758223816151905 7.693013881949988 62 59 16 1.7013318999978375 6 7226 8 3089 1 2344 3 4720 5 3523 4 5121
2021 3.7904002101920833 2.7288090051135017 7.723540813840451 246 245 201 1.0174928313778884 6 8367 8 3080 1 2338 3 6164 5 7784 2 4318
2020 7.187760319575701 1.220568811872154 4.176686589680778 115 13 16 0.4524415863453683 8 5210 1 2335 7 3164
2019 4.033522507056912 2.905581962812616 7.685143166660581 122 84 47 0.4127900632621215 8 3096 1 2311 3 2881 6 4136
2018 3.820856973439646 2.9285611485006475 7.727556441083736 222 230 189 0.5238291815093411 6 4142 8 3107 1 2308 3 2873
2017 3.621925873014668 -1.235103248589223 7.17086123206752 234 254 191 1.1554389284339794 6 10209 8 2490 1 2200 5 8704 2 9725
2016 6.927979222800438 -0.4186246015639671 6.265768039818277 213 172 124 0.6334646754111443 8 3310 1 2168 7 2328
2015 6.251387924994755 -0.14658995855493245 5.721249414518352 171 128 86 0.9021662070708721 8 2050 1 2135 7 1746
2013 3.3144675042209344 -3.0171998729345564 6.954438582114072 160 138 125 0.9754185644698208 3 2266 1 1861
2012 3.3118455786753205 -3.066488390960924 6.9383013448783055 163 143 138 1.5061116247866728 3 2263 1 1856 8 1452
2011 5.451980683933405 -2.811402389053959 6.397181895828275 202 166 117 1.0913684602527354 8 955 1 1827 7 1076
2010 7.0619951286733125 2.8077674902677403 6.619529043414296 106 73 27 0.20574170371021258 8 3097 1 1771 7 3293
2008 3.5011866446364053 2.4155475959312143 7.736976123301857 176 194 152 0.8787120509660572 6 2961 8 1820 1 1715 3 1956 5 6381 4 5011 2 3948
2007 3.824762392025871 2.8256026959599976 7.687924536701041 121 132 99 0.9274170283108778 3 1802 1 1676 8 1936 6 8352
2006 3.814546841935207 2.7933915370104545 7.716689470362163 230 244 202 0.5852558157687113 6 4128 8 3068 1 1673 3 2801 5 3490 2 1615
2005 6.7648085374511755 1.359474938436098 6.230642110347477 51 131 216 1.603687427366035 8 6256 1 1650 7 3746
2003 4.40332793060282 -0.8489194842678287 6.992347598769643 172 122 89 1.466099144899597 6 833 1 1409 3 800
2002 6.22245162245529 -0.10938369670176463 5.724819360384264 141 96 65 1.1575123369988862 8 2036 1 1261 7 2355
2001 7.0380816219358575 -0.29204331481173823 6.195495717034689 139 100 75 0.5680883271889529 8 1288 1 1239 7 1751
2000 3.4036190819182623 2.5769970469093364 7.808720351339481 156 153 112 0.9720925478229827 3 1770 1 1171 6 2439 5 3459 4 1368
1999 6.860700852061792 0.512038568406025 6.397371839716464 96 65 11 0.6964392054840611 8 1426 1 1148 7 1058
1998 5.28250326799731 0.4888416441235059 6.972190606262345 235 212 204 0.5921596838164322 6 4663 1 1125 3 3230 5 11679
1997 4.414864760395484 1.462749121697105 7.561955126679647 148 106 82 0.4110635654286525 3 6300 1 1119
1996 5.011349624087221 1.0027572700755238 7.107990306077353 57 22 7 0.6580142419777975 3 3560 1 1100 6 10054
1995 5.938875552701702 3.754443594754411 7.223378145497776 64 38 11 0.08913806686092285 8 1660 1 1077 7 1247
1994 6.96647362418696 2.3399011946306323 4.009079631179686 254 161 178 0.7878074656033139 8 1922 1 1041 7 1271
1993 6.321612142508226 2.1286735611530245 5.942028638609975 130 86 39 1.7971708442867058 8 1737 1 1018 3 1143
1992 6.32586060448346 1.9782496487758274 5.9305145300086455 139 99 50 2.095604009129227 8 1832 1 1001 3 1782 7 1386
1991 3.8852223995750226 -3.753492543512185 5.890039475296459 192 174 174 2.9668180269901376 8 936 1 897
1990 3.451313137889065 2.5489288846328257 7.787885681607828 138 144 98 1.0296890942959538 6 1389 8 974 1 886 3 1145
1988 7.65030586606321 -1.2120894363271324 5.943131052112718 160 136 124 0.6100455300797564 8 1564 1 734 7 1202
1987 7.194544412351023 -0.5241258821269228 6.153588875724106 119 85 65 0.3520482005319317 8 834 1 720 7 936
1985 6.223508863310672 3.763794793925206 7.05821828444222 138 133 130 0.5100135536143346 8 709 1 642 3 1748 7 873
1984 4.319936850951382 2.755059414927279 7.596164574078856 92 55 16 0.7150688119730383 8 1230 1 615 7 744
1983 3.213402144665252 2.723979580079386 7.933233421675405 208 198 196 1.4507828667606169 3 702 1 453 6 1380 4 2568 5 5423 2 626 2 2031
1982 3.8306631479971673 2.7244815909677254 7.697837674450935 229 236 139 0.9976715300260713 3 682 1 451 8 515 6 695 5 684 4 1110 2 427
1981 4.0620673411444805 2.7005134052018733 7.673060568338407 196 184 175 0.8681357334620529 6 712 8 516 1 449 3 701 5 703
1980 3.8457919221593095 2.93009277883394 7.725715930860734 205 212 160 0.48977904510822917 3 694 1 445 6 494 8 553 5 633 4 1117 2 642
1979 4.3187565070663325 4.334670935729486 7.840660329490664 110 64 38 0.30150274641250824 8 701 7 880 1 388
1978 4.906462147740732 -3.0789843887800554 6.546231763788951 70 59 56 1.273234524144461 8 427 1 366 7 480
1977 4.6289780742280335 -2.9708127114396707 6.703114364984296 145 110 90 3.0530922182966593 8 305 1 359
1976 4.615813123672635 -3.0862973977721486 6.6323425680085375 95 84 70 1.0783849839197797 8 321 1 265 7 319
1975 3.0218343451570213 -3.0974537356879472 7.116455417349761 112 108 109 0.464447463937792 3 267 1 264 6 254
1974 5.557411788127396 -1.951853884120809 6.416248954503671 148 122 121 0.8759899090200042 8 326 1 231 7 275
1973 6.877113248021662 -2.1953962220524446 6.078294160787703 83 58 41 0.4174280672660138 8 392 1 230 7 325
1972 7.317377367091154 1.5106707582829522 4.738698762691035 95 182 140 0.5468348444479046 8 263 1 144 7 159
1971 3.313522685637434 0.8860707205911335 7.602588980898437 203 217 168 1.8536256906604844 3 48 1 80 6 60 5 57 4 65
1970 3.3950356820625696 2.461220783451943 7.798396788266216 176 184 139 1.3160046872113416 3 77 1 73 6 64 5 92 4 69
1969 7.0278421074208275 -0.26721052733778067 6.298295989532488 134 88 62 1.7014756905021595 8 68 1 71 7 60
1968 4.0518552275635695 2.981467252471263 7.704149422982944 83 52 32 1.6463015864459916 3 76 8 86 1 55 5 163 4 132
1967 4.394226556399793 1.7259211606726839 7.477553655914902 105 62 36 0.887622190661676 8 88 1 47
1966 5.035411409597934 0.4364432116684651 6.998107672005199 51 22 20 1.3112782445445912 6 4585 1 5060 8 8135 3 3162 7 3844
1965 4.832452470091546 0.8856031450238209 7.122380056487911 109 43 28 0.9284067797819718 1 2617 8 3695 6 1722 7 2444
1964 6.156919302761831 2.9018358839551612 6.962194320551025 122 84 32 0.9090544109807226 8 6700 1 14238 7 7296
1962 6.067197176149702 2.885671146907244 6.94951784226378 132 95 29 1.2825337924138704 8 6711 1 13960 7 5259
1961 3.3783181416385544 2.5688504778143693 7.839600947132254 178 184 139 0.607567617846517 3 6034 1 13772 6 8487
1960 5.193786349902278 1.8515596030619184 7.166173219725217 104 51 0 1.868731461731187 3 6361 1 13642 6 12208
1959 5.403593645631855 1.9657476406937218 7.112159764270642 142 86 25 0.46929572202299313 8 8998 1 13618
1957 6.993699448037383 2.2964097256112916 3.980063163884337 222 254 239 0.9874555540525884 8 7066 1 13138 7 3373
1956 7.102182984356376 2.234608962492109 4.149873935499513 143 200 159 1.1687940661761236 8 5318 1 13097 7 4056
1954 7.203162185054292 3.0127693672144416 6.660213250819927 175 181 186 0.9818469926963331 8 6760 1 12564
1951 4.898081707172581 -0.22480594925822872 6.947858046191612 116 66 41 0.49725669060028294 8 8483 1 11971 7 8868
1950 4.924439583555038 -0.3263478712037159 6.880238859037603 121 65 40 1.7344572129343645 8 8499 1 11942 7 8836
1948 5.383800385442214 -0.592894387100834 6.730083390929231 169 115 77 0.6704530777548149 8 8530 1 11788 7 8619
1945 5.956511075245284 0.02096672005783889 6.65493409317039 46 15 5 1.106611944335605 3 3328 1 11633 7 8259
1943 3.03619214101643 -1.142105736668943 7.412450510367694 179 126 105 0.7049492843514927 3 7183 6 10241 1 11461
1942 4.491615531836016 -1.2420798623968474 6.9606452267526695 180 139 108 0.8423751409515569 8 8369 1 11441
1941 4.386465946255332 -1.3001230125906662 6.92981101589614 204 158 124 0.7599071479533339 1 11435 5 2803
1940 3.9431728447702743 -1.4565628984741439 7.088506990264189 177 133 104 1.776965738534361 8 4240 1 11293 5 9043 2 9825
1938 4.047252508984011 -1.2886131810253347 6.739185591422689 85 69 67 1.0663487294218463 6 174 1 11228
1937 3.644528507149725 -1.4057235328779996 7.14755720077639 240 243 219 0.8152087079209345 6 10268 1 11206 5 8963
1932 5.848140101422442 0.07947350385548736 6.519980597589406 102 51 20 0.4953838828973123 8 8006 1 10876
1930 4.178804690545756 1.614763427057202 7.396483508729856 88 41 6 2.0863923659810673 6 11316 1 10443 4 7028
1929 4.895757448027548 1.4787046958407815 7.2638169986592995 128 73 34 0.6069180120744173 6 11247 1 10375
1928 3.2376639013058055 1.8808502105682892 7.773953244183466 253 252 213 1.2331298873621441 3 6366 1 10354 6 11220 5 8165 2 4121
1926 3.2935999824111692 0.859271236601404 7.576646368741312 230 240 204 1.1082576596875038 3 7781 1 10194 6 5589 5 5971 4 3696
1925 3.2182459256024565 0.8655447167880115 7.616844815215915 52 61 17 0.6408057885219637 3 7799 1 10192 6 10498 4 6526
1924 3.2446590149532186 0.7901056705517074 7.605143551155559 255 246 212 1.779243730206608 3 7821 1 10178 6 4639 5 5959 4 6141 2 2278
1921 4.76442310425036 0.460882256384386 7.107839773148217 132 80 41 1.2658727763748905 6 10372 1 10064 3 3221
1919 4.779860009325552 0.44647648401289686 7.089431963757665 72 31 2 1.2073327361240418 6 10374 1 10015 3 7919
1917 4.847129579908555 0.8206498877217434 7.113504534046865 95 40 9 0.8922583615520177 3 3508 1 9751 6 3053 7 2475
1914 3.577558214298333 -2.6478711061927407 7.675713940629875 192 170 159 0.30343297053259555 6 5982 1 9669
1912 4.840408349823047 -2.3926297477452385 6.663842914908035 169 131 110 0.2884445787479415 8 7584 1 9583 7 7501
1911 5.265400669100582 -2.4668951840904842 6.794668887048426 169 135 112 1.034735650451929 8 7590 1 9542 7 7462
1910 4.8895503719376245 -3.286636998945345 7.108640789614498 244 230 227 1.4756386452155341 6 11822 1 9429
1909 4.110213167157085 -1.0495978190863924 7.059585936426504 138 100 72 0.8936337327613924 3 7160 1 9402 6 9885
1900 3.6115958027755513 1.4604172490060336 7.588052715507861 98 60 24 0.4142690153892512 8 6000 1 9178
1899 3.505399101437844 -1.8868111498839808 7.113890098215312 180 157 139 0.6596683325107808 3 7046 1 9117
1894 4.595383261184971 -2.5070293548601414 6.701851875594794 22 5 2 1.0095621881238253 6 11418 1 8580 7 4293 8 4295
1886 4.577241982082622 -3.262026032882991 6.694062364189928 89 72 64 1.5358619758090664 8 7823 1 8119 7 3934
1885 4.476565642553166 -3.2267805137372583 6.6448773997449715 89 72 64 1.1640713892392276 3 7716 1 8050 7 7769
1883 5.9524412284695565 2.0345939247028246 6.896518591323433 103 56 12 1.3641720355523734 3 6065 1 7831 7 6414
1882 6.13312584795348 3.3813307036383233 7.063827232678195 38 12 0 0.6948962335735768 3 6778 1 7778 8 7041
1881 6.9930774861772 3.5564571669901017 6.93945310275319 78 59 17 2.153912034007268 8 6905 1 7756
1878 7.162109598812033 1.6261574158802432 3.8987123839220064 206 207 225 1.207919852264183 8 5863 1 7644 7 7091
1877 6.893694188946876 2.759633492016756 6.6732972100095544 109 128 127 0.2823321423470712 8 6885 1 7590 7 7261
1876 6.9426772864526685 2.706911811617 6.606440833097808 212 245 248 0.30681422353999527 8 6816 1 7577 7 7104
1871 3.052331096905089 -1.1246945920807823 7.40318712241214 55 17 0 1.3295969503591276 3 7189 6 10240 1 7350 5 8590 2 3133
1870 6.783417667192571 1.0867486466017982 6.231928280383136 101 107 81 1.0568208643915422 8 6078 1 7321 7 3417
1869 4.889144481792381 3.6571270622675214 7.520547823001685 91 67 41 0.8874079222029031 6 8571 1 7311
1867 7.089684652110659 2.189167979118988 3.9065492657971546 182 231 194 0.8555271599529143 8 7031 1 7220 7 5678
1866 6.978338389566508 2.3397465956180534 4.050686236694844 56 0 1 0.8686992881175533 8 6557 1 7119 7 4544
1864 4.291288213657274 -1.4960704944269583 6.949833098013857 203 173 139 0.30682622949363664 3 7255 1 6972 5 9065
1863 6.810357890153922 -1.365719540319295 6.1872996336764 19 22 15 0.3376133761425295 8 7340 1 6941 7 4195
1862 5.988702352797519 -1.3680784179815613 6.4100174497230915 193 157 128 0.6583620956087898 8 7337 1 6919 7 8269
1861 3.9082949672052707 -1.1776098692557375 6.987302097748077 145 103 79 1.210061602030714 6 10257 1 6918
1860 3.775345269180489 -1.200540432131713 7.145213653147085 144 100 79 0.8402249308855929 6 10198 1 6915 3 3860 4 9319
1859 2.9697650732709002 -1.2087681880801282 7.424519069399339 152 93 56 0.6352691187794455 3 3857 6 5721 1 6904 4 9252
1858 6.688980524153114 -1.3894856652420937 6.1252324022675335 231 249 244 0.17991756387387228 8 7329 1 6888 7 7553
1857 4.168198926198261 -1.7140424760668571 6.9482361128536425 198 173 145 0.5734942109708828 3 7271 1 6774 7 7629
1856 4.298527228346796 -1.92063907114714 6.862726834029642 224 190 153 0.15359251730402487 3 7044 6 11516 1 6761
1854 6.972677863335885 -2.0696932524082534 6.02732094846303 252 226 218 0.392341277100007 8 7444 1 6732 7 7633
1852 4.737945910231205 -0.45946873642229225 6.975791312771351 125 75 45 1.4548150835106224 3 8153 1 6712 7 8550
1851 6.659444736692454 -0.5996089430400974 6.319894876883811 172 120 72 0.5118611860703071 8 3510 1 6697 7 3659
1850 4.922962949195074 -0.3891626061634595 6.874878240109196 154 104 81 1.1332080712070054 8 8432 1 6690 7 8590
1849 3.7100034594971567 -0.4209439012828269 7.294774291711208 143 98 57 1.5281032753391457 1 6688 3 8205 6 10705
1847 4.617295020563466 -0.4869548593464688 6.992091797925347 114 91 79 0.7473126956316006 8 8570 1 6652 7 8546
1846 4.7528539054462575 -0.23808842307623085 7.01977564339843 112 74 46 0.8688811227053702 8 8476 1 6620 7 3435
1845 4.877117933290167 -0.28733257199200307 6.926355105013437 110 57 27 1.614067178706419 6 10582 1 6592 8 3388
1844 5.3158576179918136 -0.9467969265440501 6.692523596638986 151 106 75 0.9739348317338049 8 8257 1 6542 7 8521
1843 5.331411332397604 -0.9567544666096794 6.678078937113817 176 132 107 0.5822027870221151 3 7239 1 6539 7 4223
1842 6.667178755763547 -1.2370450993707072 6.258010157655555 177 124 70 0.9706360735549809 8 8332 1 6529 7 7583
1841 4.00133720683819 -0.9256872145266517 7.130167634660528 119 95 83 0.7488441193858432 8 2499 1 6511 4 9633
1840 4.7860126850750815 -1.0550102481211463 6.850810468393216 140 100 80 1.1247446268069383 3 7163 1 6508 6 5878 7 2786
1839 2.7472294653236573 -0.818283038884361 7.536741002417974 253 231 213 0.7177981573832808 6 5815 1 6498
1838 5.3915324466445 -0.6778370295626616 6.703185265966242 128 81 55 0.9661294577749634 8 3497 1 6468 7 3544
1837 4.345387065112545 -0.746216431625724 7.104265123948185 152 134 122 0.6388419326030205 3 8251 1 6455 7 8679
1836 4.486180105563102 -0.6024686002953008 6.089161990516871 141 128 120 1.9128916309549249 3 8312 1 6436
1824 4.65027891048083 -3.4537795086394323 6.978438570390821 108 91 80 1.764368372184454 8 7816 1 6280 7 7709
1819 4.733227213833281 -2.482761027301444 6.662024389512444 161 133 121 0.625336076149255 8 4291 1 6099 7 7445
1816 3.8302756840426975 -2.4686040710973325 6.991227405782263 133 116 108 1.7531146883741862 3 7088 1 6054 4 8188 2 1727
1811 5.659977563921463 1.787079225870642 6.995340516458805 127 78 35 1.3985690863027793 3 6363 1 5791 7 6760
1809 6.776033988975648 1.379004131246291 6.111225293547555 67 157 245 0.9227385691559316 8 6229 1 5734
1808 6.943328368806109 1.5576055610864628 5.973616051422867 2 95 179 0.7598834613640583 8 3977 1 5719 7 6802
1806 6.300878138556642 1.9143376315240443 6.74927635078572 88 44 0 0.5810830799953731 3 6388 1 5701 7 3183 8 2918
1804 3.269678553507358 1.7974167456609749 7.726067363903904 21 31 6 1.6743318218507555 3 6460 1 5591 6 11193 4 6957 5 6587
1803 6.649981247913355 1.335332480239555 6.162158305915606 68 168 253 1.5021047505681944 8 6003 1 5549 7 6632
1797 5.070404148635202 2.8039326520590606 7.3812414982684045 121 71 18 0.7045144931439484 3 6195 7 7130 6 12229
1796 6.125557331246298 2.836250670623702 6.953319221602954 114 65 0 0.017415316584972973 8 6864 1 5395
1793 6.323614923510938 2.0234467167364936 6.805916384352266 81 38 0 2.320221056127639 3 4703 1 5282 5 6927
1792 3.7204103945890434 3.0089374792383388 7.9116415169381265 111 73 35 1.716735503747284 8 6734 1 5250 4 6790
1790 4.953164840648026 0.2858729695707126 6.987785061584583 126 74 43 1.479694598808828 8 7895 1 5163 7 8282
1788 5.696396566654694 0.35064874340231533 6.754010098062582 138 92 56 0.3526179744401274 8 3780 7 8125
1786 5.122152037873745 0.3861170663383094 6.932666711836152 120 80 64 0.29830206686092314 8 8163 1 5053 7 8123
1785 6.868569027132977 -0.30592825915263 6.3065705678593424 156 106 53 0.4120740239121346 8 8515 1 5005 7 8757
1784 6.805130608914562 -0.4125133610842119 6.225869422928449 175 136 85 0.7583312501417661 8 8465 1 5002 7 8831
1783 4.9536039477102 -0.20207235969552376 6.938381907806467 145 93 71 0.43648601969817785 3 8439 1 4996 7 3441
1782 3.886190858089272 -0.07717418323871938 7.376861289642569 150 104 70 1.4285867908436964 8 3374 1 4993
1780 5.949447357977486 -0.019927785080742735 6.635637681212279 63 32 12 1.015548125333005 3 8336 1 4964 5 4117
1778 5.262363293641528 0.007688983894655893 6.867635334696698 160 113 67 0.4452772570247525 8 2084 1 4895 7 2192
1774 3.879176303118813 1.4645988566640815 7.532174149430921 112 63 0 0.6434270774470132 3 3380 6 11236 1 4743
1771 4.943004794771199 0.6985150702168715 7.015303067190516 133 78 38 0.6970411261753476 8 8062 1 4731 7 3879
1770 3.2556269722676245 0.9169651708905587 7.606664251718458 223 239 200 0.7729128790175884 3 8076 1 4724 6 10507 4 5616
1769 6.036072345925286 0.4972740610317672 6.67931969814838 82 48 29 1.2338042744435131 8 8208 1 4721 7 8177
1768 4.889904550996488 0.6181115792026294 7.081420281791407 145 92 60 0.8069060244998502 3 7778 1 4694 6 10549
1765 4.749088579868158 1.0694581239216232 7.305958639509857 101 46 3 1.7870592044319842 8 3690 1 4625 7 6008
1764 5.193710356298627 0.9721350056477125 7.060364242948598 131 72 32 0.7357622230480674 3 5711 1 4624 7 8362
1760 3.794551465479952 1.8944249541261993 7.5997136284265485 75 82 30 0.7808126187318435 1 4571 6 11161
1758 4.702260109114539 1.911552470271054 7.3309344189763 159 101 37 0.7501112167538033 6 5070 1 4545 3 4680 2 4999
1757 6.673364456506291 1.3942360307560133 6.142071073655863 0 52 140 1.3063170783145959 8 6257 1 4544 7 4033
1755 5.5212729726632706 1.35466093764424 6.976073920523997 135 79 22 0.4044300669235395 3 6432 1 4524 7 4030
1752 4.583929712751599 1.4308221191318646 7.284660845111561 91 40 10 0.1876622692683122 8 5999 1 4505
1751 4.678541693185224 1.6000983089857084 7.327785802113458 83 44 13 1.52349787599647 6 11299 8 5233 1 4487 7 2182
1749 6.948572866156005 1.729201131589197 6.0243492263089955 0 27 68 0.8977988484027074 8 5722 1 4456 7 6723
1747 3.867047873879606 2.691919713793662 7.679896727738278 82 69 4 1.646948628753308 3 6167 1 4421 4 7159 2 1346 5 1908
1744 6.9431218236686405 1.520964278617053 6.092184131264348 71 149 230 0.9881379101932444 8 5220 7 5008 1 4408
1743 5.021043908422866 1.9439233589355187 7.17396163311038 103 51 0 1.502154562170224 8 4993 1 4398 7 6709
1741 6.625656815268416 1.7131919688824342 6.201715203702414 66 118 185 0.8400321556218961 8 5646 1 4379 7 5114
1740 6.870071216001708 1.6237961919813715 5.9849084506235775 29 97 157 1.1873754770553837 8 5113 1 4378 7 3130
1739 6.295616995423176 1.863328235720822 6.733216259065378 90 41 0 0.23676797082360393 3 6401 1 4372 8 5034
1738 6.649590172908764 1.6174201591129052 6.04764339903394 0 46 120 1.2266335644005177 8 5215 1 4371 7 3159
1737 6.368720766164311 1.5862181188087106 5.94209296452543 105 59 9 0.09498709151311502 8 6188 1 4367 7 7611
1735 6.740666443434303 1.541881433008309 5.976218230000629 71 152 234 1.0338100597955646 8 6143 1 4364 7 6810
1734 6.805896131373355 1.5243168144671329 5.9520122165123155 76 161 241 1.1759848729717144 8 6135 1 4363 7 5019
1732 3.712980778221876 0.8446859130529809 7.440654193122242 78 87 43 1.5471252550705377 6 11515 1 4355 5 5964 4 6599 2 1800
1731 6.769490482330918 1.0668896675893458 6.708896997030919 121 79 19 2.1701003995003387 8 4032 1 4347 7 6262
1730 3.362130684105467 0.9795023407192915 7.572314533839868 227 233 193 1.3684316076546865 3 3490 1 4322 6 10816 8 6055 5 6733 4 6003 2 2790
1729 3.2660775718930526 0.981296613617012 7.597122885004191 246 253 224 1.5669265786855284 3 3474 1 4320 6 10738 4 6001 5 5936 2 2795
1726 5.941633614950496 0.11435884565983465 6.510336393135702 197 165 146 1.724271168138376 8 3704 1 4282 7 3501
1724 6.034446951369773 0.41254014396714084 6.670760450117356 117 81 58 0.7029313019027398 8 3766 1 4272 7 3787
1723 3.3791902700920007 0.7932844849756374 7.54818529293063 245 245 222 2.19171186862533 3 3213 1 4269 6 10458 2 12142 5 10976
1722 3.291701868217972 0.7666007123132209 7.589588256457541 33 56 30 0.7128494546485898 3 7807 1 4262 6 10468 5 6879 4 6266
1721 6.714114194025252 0.890551480493042 6.563657833867604 142 88 26 2.069769132517847 8 3654 1 4240 7 3870
1717 4.876049279697815 1.335453268265665 7.258020308167493 103 73 39 0.5057929014875945 3 3413 7 5650
1716 4.441011382593506 1.3714780057529496 7.384813395918531 86 48 14 1.2649864428158273 6 1612 1 4200 4 1971
1714 7.255528220357526 3.7569361013999716 6.738247185655967 115 110 106 0.49829071120859064 8 6504 1 4104 7 5710
1713 7.163207021720287 3.7404365360197285 6.733669794815181 123 116 108 1.0630360792509905 8 6502 1 4097 7 5201
1712 7.06628169531997 2.1806996722990375 3.9391162719088886 176 235 212 1.0919082856187312 8 5324 1 4089 7 5186
1711 6.153963156720506 3.6683741112737223 7.1369449883953235 34 9 0 0.6282735568770078 8 4003 1 4074 7 6957
1710 7.107688652808618 1.8453212924321738 3.7122859077076487 234 255 241 0.9862806598501846 8 6833 1 4070 7 5169
1709 6.266140640109843 3.8446796496223388 7.116363543243045 77 47 21 0.7058911057548984 8 2727 1 4053 7 5664
1707 6.977661395870157 2.2761195444081848 4.371664950922227 13 7 13 0.6339446998773323 8 6768 1 4034 7 5146
1706 7.094951125795408 2.0745281694401014 4.014032640120383 138 226 133 0.6773465846660196 8 6708 1 4033 7 5135
1705 6.977575962586837 2.2565473130200515 4.379437611518218 240 246 133 0.8888138633718836 8 6754 1 4028 7 7021
1700 6.010298082325433 2.8021778672055695 6.975749554396464 120 65 1 0.20654055617196065 3 6157 1 3910 7 7115
1699 7.1608763212355075 1.5880229133194483 4.323311586672326 223 171 181 0.6650570252399602 8 5099 1 3891 7 4967
1698 5.129585254089206 2.9343280026802736 7.3119506925781454 101 59 19 0.9482731865900159 8 5500 1 3890 6 7189 3 4535
1697 6.163417190961849 2.786231422738404 6.911980135931962 110 62 0 0.2918707259994298 3 6100 1 3862 7 7114
1696 4.441022039151656 2.877281548148873 7.537959763021393 115 81 44 0.6128447213288734 6 8361 1 3857 3 6101
1692 6.924810702368698 2.9268221235331855 6.657044890720924 28 25 4 0.39040469224655144 8 5304 1 3717 7 5345
1691 7.08713579683346 1.8697761132457276 4.327657155029658 175 220 187 0.6388497611653557 8 5907 1 3713 7 5264
1690 6.9929175152939145 2.840958186750319 6.641456901672406 11 25 20 0.5797256933679021 8 5501 1 3698 7 7276
1688 6.980751133865168 2.7961753632926594 6.606400919480257 11 57 67 0.4568924377050278 8 6725 1 3692 7 7292
1686 6.673935220133521 -2.9400657654079048 7.042847497546961 219 195 161 0.868111893961198 8 7619 1 3682
1682 4.511636523883573 -3.1148763749843082 6.603777166274785 101 87 74 0.8444366895841205 3 7565 8 7789 1 3625
1678 7.3738969767948115 -2.305807220043764 5.902989552879127 227 208 183 0.876655455729912 8 4403 1 3519 7 2547
1671 4.788251650320202 -3.068485781411615 6.5590882531603025 180 140 104 0.6778006005851248 8 3925 1 3393 7 8117
1668 4.624124294112625 -3.2367074963586147 6.63721362607368 96 84 72 1.6019202359116516 8 2317 1 3311 7 2638
1667 3.7628413663345457 -3.6620473320329445 5.962632313310969 160 162 172 3.1189201421163477 8 7253 1 3287
1658 4.993358984908538 -0.2739084973607178 6.9282296207361735 123 76 61 0.9377853781691768 3 8467 1 3199 7 2186
1656 4.657775134959042 -0.46699493978590406 7.081320221713691 138 114 100 1.6388669292097162 3 8144 8 3299 1 3188 7 8557
1655 6.60105488287794 -0.6836456124859853 6.304072190824503 188 132 73 0.6530501869715518 8 3496 1 3183 7 3569
1654 3.730491503769388 -0.38788324176664585 7.294235503882392 135 80 28 1.1447604607895145 6 4739 1 3179 8 3316
1653 5.479706972855958 -0.5868454355559447 6.697788296314116 173 121 82 0.7103062397022474 3 3901 1 3177 7 3643
1652 4.798359696505921 -0.5107952470781375 6.900217900251424 132 77 57 0.4022027877859647 8 8609 1 3176 7 3656
1651 5.050776304338255 -0.3803944646846658 6.895661904716702 104 59 28 1.6398686462139587 8 8425 1 3159 7 8582
1650 4.69143421974356 -0.36668063519505406 6.996721508989957 125 86 66 0.6860705980202072 8 8428 1 3158 7 3516
1648 4.741512290152131 -0.40900980574581175 6.975836925621216 142 89 58 0.6182406999232573 8 8904 1 3149 7 2339 3 8220
1646 6.831158178055963 -0.6424201063016007 6.195018452694624 137 93 58 0.7271927836944289 8 8563 1 3143 7 3645
1645 4.683254094331035 -0.42621457995053486 7.035930936711172 128 103 84 0.8608384820522655 8 3284 1 3142
1644 5.56349689335769 0.062053686314360396 6.728334727907773 85 44 16 0.45649799340150593 8 7999 1 3128
1643 4.985664500627097 -0.18206422106339623 6.903643628691241 147 91 62 1.3599923586755593 8 7969 1 3120 7 3443
1642 6.883648571113096 -0.19969258767644738 6.295234313424747 131 88 43 0.5542210898934788 8 7975 1 3116 7 3520
1641 6.833138749570166 -0.2030970980941603 6.300125365621598 164 123 71 0.5842512918909395 8 7970 1 3114 7 3517
1640 6.854878173319328 -0.21449059066651924 6.3096193054447856 122 81 34 0.5762714437582694 8 8491 1 3111 7 3529
1639 5.007882264868635 0.025410138761362035 7.051673030711047 117 59 35 1.911239353357488 8 3764 1 3110 7 8818
1637 5.556444498652658 0.12502347290665358 6.751016876062815 206 157 127 0.4169856888967641 8 7875 1 3096 7 3497
1636 5.816831365931906 0.07382479840825049 6.663454033740954 123 77 42 1.3586149308504154 8 3753 1 3087 7 2343
1634 6.677525447956516 -0.19758707729473993 6.3509945058315695 158 106 56 0.8101766048209577 8 7974 1 3064 7 4079
1632 5.216605388920897 -0.06653183400345351 6.827228522244289 117 63 17 0.5070326801673432 8 2075 1 3039 7 2358
1631 3.2230205623769113 0.1500596552415778 7.54555118356833 148 83 26 1.8020148526397446 3 2060 1 3032 4 2634
1630 4.188920978885168 -0.9942570003268899 6.965250829227379 144 94 67 0.6337049876779564 6 832 1 3019
1628 6.698425846924908 -1.281250642604599 6.148489206419759 189 206 207 0.46150219199515147 8 4201 1 3010 7 3409
1627 5.32780420728493 -0.9830858483604304 6.679249578434188 142 97 76 0.838203917094417 8 3433 1 3009 7 4221
1626 6.664309210716947 -1.3243760878566964 6.217640857635088 120 90 63 0.24563917575846403 8 8353 1 3006 7 4246
1623 2.848851335697607 -1.0972091416599825 7.485255784462198 137 82 43 0.41806314915532267 6 5746 1 2935 4 9291
1622 2.9049219321605215 -1.1788931205155038 7.4450031687774025 181 119 80 0.52619928116928 3 3863 6 5712 1 2921
1621 3.5749272285305085 -1.2504722754955748 7.199704808765806 45 38 10 0.9570598853393995 3 4029 6 5728 1 2917 5 8648 4 9238
1620 4.447469350814424 -0.7313555726688961 7.051613231126264 161 134 123 0.3728575638122151 8 8291 7 8807 6 10061
1619 4.7642951302063254 -0.6105184835341132 6.917071557835859 174 125 85 1.4465593702378274 3 3883 1 2870 6 9954
1617 6.6247297938534135 -0.7866825861982504 6.293094570181118 183 123 60 0.6114245126713526 8 2074 1 2862 7 2657
1616 4.765113456872233 -0.7721912015577188 6.847342540251318 208 225 233 2.431415537984898 8 8283 1 2831
1614 6.976944336886776 2.6938972114441904 6.633024503821448 161 169 153 0.34886728765130776 8 5544 1 2806 7 5287
1612 3.4041415459989937 2.4657734638342457 7.798653738020464 245 253 203 0.8498999312773281 3 2955 1 2798 4 5002 5 6402 2 3986
