# 3D point list with one line of data per point:
#   POINT3D_ID, X, Y, Z, R, G, B, ERROR, TRACK[] as (IMAGE_ID, POINT2D_IDX)
# Number of points: 439, mean track length: 2.9559125085440874
1695 2.885073479807546 4.116660895940686 7.87236876685211 75 37 6 1.9744107156414366 1 6767 8 7071 4 6908
1694 6.39825392368095 3.264464308163741 4.370732070623034 241 241 248 1.0740888077263475 2 13138 8 7066 7 3373
1691 6.513769305102783 3.168069287443415 4.311773411851597 194 223 204 1.004400893890697 2 7220 8 7031 7 5678
1690 6.259241267540588 3.3245819823508493 4.693219166841906 9 6 1 0.7217108306822425 2 2721 8 7002 7 5183
1689 2.69867497309337 3.972897881157506 7.91900117042904 100 56 37 0.20425069586960576 2 9057 8 6992
1688 3.246788405853307 4.358398144875032 7.680381456618429 101 63 62 0.6013324155204003 8 6967 4 6938
1687 5.0904620046646185 4.602149550992227 7.333508793432462 86 49 33 0.9324568299524683 1 2906 8 6959 7 5220
1686 3.8462741935393225 4.521539284962846 7.699442353237086 58 24 12 1.5562005661839757 2 12144 8 6953 6 8581
1685 3.6954976960242902 4.4233175164738645 7.528678209115756 52 18 9 2.493182478521191 8 6946 6 8541
1684 6.0119283176595895 3.817246504432468 7.010323685731232 100 102 115 0.23324122164549133 2 7590 8 6885 7 7261
1682 5.316675964041163 3.7856666916415276 7.20522626060009 94 37 1 1.5173789441574461 1 6156 2 5398 8 6843
1681 6.593106382727245 2.8221729995128606 4.140482525658432 250 245 250 1.12503657407017 2 4070 8 6833 7 5169
1680 5.297177565875001 3.653452686232539 7.184442534531932 213 170 174 0.5817493455005948 2 1518 8 6827
1679 6.07255480568769 3.7688685702956635 6.950902438849322 174 194 207 0.29663175298621086 2 7577 8 6816 7 7104
1678 6.3515301188645825 3.258165219387184 4.760964230650814 20 4 0 0.756626687371476 2 4034 8 6768 7 5146
1677 6.285853755156656 4.105984629582266 7.0065522050390365 240 227 244 0.9369788481476027 2 12564 8 6760
1676 6.515866108757478 3.116348806610016 4.366534854626669 176 227 174 1.0712926720115403 2 2716 8 6755 7 5228
1675 6.353329105676209 3.239161272896338 4.769963041788255 248 231 197 1.0208994111584684 2 4028 8 6754 7 7021
1674 4.140630981127934 3.7919121446896544 7.534561148323973 81 33 13 0.7872756690869777 2 2384 8 6744 6 4107
1673 4.635801652239575 3.9232140544436698 7.751411198909076 145 89 42 1.4837083110588276 1 6142 7 7062
1672 2.7453811441113247 3.7099607096823424 8.00171292668283 108 58 35 1.6771313841138948 2 5250 8 6734 4 6790
1671 6.098784182111628 3.8617585431650387 6.948465458928579 10 39 47 0.4756161063904276 2 3692 8 6725 7 7292
1670 6.675856901911156 3.1285992732638115 4.482400990256361 15 51 37 0.8986716696788234 2 2709 8 6720 7 5139
1669 6.727791881972036 3.1299134435756866 4.469410754671819 13 47 31 1.2457486446509478 2 4044 8 6719 7 5142
1668 6.503800306710381 3.065594339623459 4.402100394103129 173 229 160 0.9008054842484176 2 2708 8 6716 7 2880
1667 5.157627944365795 3.8465756143028327 7.215189594417954 133 78 41 1.301385454273685 2 13960 8 6711 7 5259
1666 6.524590870036146 3.059614115749719 4.426221579029679 162 216 140 0.7852185781402166 2 4033 8 6708 7 5135
1665 5.2430624144470155 3.8745098346524895 7.233339155730547 123 69 31 0.8172505365663111 2 14238 8 6700 7 7296
1664 2.7035491386442443 5.238529769537496 7.988310522052013 251 228 201 0.5201701541189182 1 6912 2 7145 8 6607
1663 3.1137164640001407 5.474505734319629 7.772694740109704 194 195 190 0.8251444229049999 2 7389 8 6565 7 5373
1662 5.901943899789389 5.633539278829814 7.05566354059179 8 12 11 0.3068078048791841 8 6558 7 5496
1661 6.371344713410516 3.308103938250858 4.437205504629914 71 0 10 0.8355301305880724 2 7119 8 6557 7 4544
1660 3.0629819652815566 5.426174792923638 7.853632144819401 82 84 79 0.559354134397927 2 3968 8 6553 7 4573
1659 3.6154774586026797 5.49457587918882 7.737940329280135 46 46 44 0.5729124014113597 2 7365 8 6519 7 5469
1658 6.2364487066875265 4.8476025064156305 7.042537641553367 95 82 99 0.4275013818245917 2 4104 8 6504 7 5710
1657 6.14808061507077 4.819718981749031 7.032575986562668 111 95 106 1.075731849105183 2 4097 8 6502 7 5201
1656 3.0672024426180515 4.531631498489697 7.944027310208153 48 10 11 1.3216824934453786 1 2904 2 7566 8 6440
1655 6.279528171333787 2.449967567232357 6.455107654378303 76 136 229 1.4029179773734894 2 5792 8 6300 7 6669
1654 3.5813117822285028 2.3628796644454924 7.617124565113969 96 33 18 0.9988851720102746 2 4526 8 6276 6 11297
1653 6.012306889285525 2.4181539950297526 6.547093957671719 1 51 147 1.242500993308627 2 4544 8 6257 7 4033
1652 6.099611238497156 2.3993015543171503 6.64371024144777 53 109 195 1.5477416861018571 2 1650 8 6256 7 3746
1651 6.118367194902064 2.4151267595462924 6.525397426321574 73 137 234 0.8326989134387079 2 5734 8 6229
1650 4.598367098384259 2.610601514295891 7.35735457037908 147 75 37 0.6630038650805187 1 6457 8 6216 7 5056
1649 3.606718634001523 2.5866731035618935 7.666932324337712 90 39 22 0.7514797007106917 1 6442 2 4574 8 6192 7 5050 6 11200
1648 6.3201744880011015 2.5762595299383855 6.468889080197981 0 29 95 0.7736328006654518 2 4414 8 6168 7 4996
1647 6.074073015303142 2.5660016870798534 6.379041876861875 80 125 219 0.9717519336133339 2 4364 8 6143 7 6810
1646 6.142967702937131 2.5562614730341617 6.361646451102829 84 144 242 1.1122261890301368 2 4363 8 6135 7 5019
1645 5.760037443362013 2.0105262014195695 6.275005272073382 122 65 42 0.036109577028454846 8 6123 7 5819
1644 7.368252834189508 2.2675317067592724 6.6322679893556 116 61 31 1.0166543172991187 2 4565 8 6119 7 5780
1643 7.324860919154371 2.274146596306204 6.616854610879339 92 40 15 2.158742314622049 2 10549 8 6089 7 3418
1642 7.446732118889673 2.277697554248448 6.480839025790194 104 59 38 1.283405272123526 2 5515 8 6087 7 5714
1641 7.2961636831818675 2.2807203817214106 6.611329382278108 111 61 38 0.8760507620336889 2 5512 8 6084 7 5642
1640 6.152588440676166 2.131931531596738 6.662573254145457 98 91 78 1.0127207655726196 2 7321 8 6078 7 3417
1639 7.389396504432624 2.120031388156473 6.612533721185614 93 42 13 0.5937468629210992 2 2409 8 6070 7 3717
1638 6.119576458713028 1.9917181278284681 6.838488555569615 26 4 5 0.8738715372651001 2 4738 8 6067
1637 6.1618574377615 1.9817799089018016 6.862742629622607 8 11 17 0.8296053722337658 2 4207 8 6062 7 3700
1636 6.14996779792931 2.055810926275061 6.809300864495672 52 50 39 0.6147108836893057 2 7357 8 6039 7 3723
1635 6.949793214745301 2.1599166816189084 5.116750572119615 127 1 39 0.3696115737498534 2 4365 8 6021 7 6629
1634 5.994874120200882 2.357502515331302 6.5680536264566 87 146 244 1.4381924924209046 2 5549 8 6003 7 6632
1633 3.647506208915892 2.1999898511236347 7.643950546144498 100 49 33 0.9469752815360063 8 5983 6 3067 7 1599 2 2611
1632 7.384141557646411 2.3898465634907984 6.66176962777094 90 37 0 0.9911311109284885 2 4533 8 5957 7 3769
1631 6.5163597105671744 2.868615271626799 4.750539710048294 187 213 186 0.7244145536587693 2 3713 8 5907 7 5264
1630 6.659660809358179 2.619768658361776 4.344539421856288 210 185 212 1.3323712976819646 2 7644 8 5863 7 7091
1629 6.523045758987995 2.8796576014372928 4.472589251117509 64 119 26 0.4211259591557449 2 7824 7 6899
1627 4.488040582348483 2.792007756991304 7.4086476647991555 134 70 32 1.547025737032734 1 8111 8 5738
1626 6.835147650803931 2.5643322365147467 5.194783729301812 10 54 34 0.8605241884707802 2 3838 8 5728 7 6433
1625 6.251861571504651 2.7805103692747464 6.432409077180586 0 16 69 0.8425454624928085 2 4456 8 5722 7 6723
1624 5.576028368475182 2.741024428825343 6.211676190430272 126 77 60 0.473759677905903 1 7030 8 5710
1623 5.591733981093275 2.6914338857347815 6.2261620359536165 125 76 59 1.7248945022061353 1 6396 8 5703 7 7365
1622 5.297960357863724 2.7095474197874694 7.192599886319452 46 1 0 2.3780472247691202 1 6444 8 5672
1621 7.0853707164529425 2.959261861337492 6.734453899595028 88 45 28 0.23894683246871515 2 5289 8 5667
1620 2.6835632459640855 2.551996784664802 7.8019592044488375 248 235 219 0.814480861204256 1 6364 2 10349 8 5655
1619 5.9196162887939705 2.729969131148106 6.583889953112469 68 97 158 0.7792849760283117 2 4379 8 5646 7 5114
1617 5.582072304900152 2.8242805898592516 6.264529734778592 120 73 56 2.0070204070154207 1 4707 2 4470 8 5580
1616 7.0752790166517965 3.2431471795248497 6.790506194128793 64 24 16 0.5554846181050229 2 3850 8 5558 7 6427
1615 6.10578510781212 3.7615331512622436 6.98060356685917 166 154 147 0.29840579506652554 2 2806 8 5544 7 5287
1614 3.4604380917824047 3.5454446746298185 7.715775708105529 141 77 39 0.28131287434945085 1 4708 8 5515 7 4986
1613 5.132907139105416 3.810895475859732 7.309422103377227 145 83 36 1.0048402227197737 1 6148 2 3861 8 5512 7 5296
1612 6.102171800607701 3.9089240053240757 6.981563063631521 16 15 16 0.5441164761658875 2 3698 8 5501 7 7276
1611 5.116046415854048 3.7172402217300364 7.195142976571267 145 83 36 1.512295642153169 2 2379 8 5496 7 3272
1610 6.0453300852905105 3.830059673330443 6.99019729883595 159 205 222 0.5844396439783713 2 1477 8 5485 7 3323
1609 6.540502880732715 2.955314575972986 4.323479816051037 20 66 14 0.8545097334138844 2 2785 8 5483 7 5121
1608 2.8760848494749003 3.410838329916328 7.834370828676782 85 46 5 0.562183060477999 2 4417 8 5441 5 7774 3 1935
1607 6.584380173981867 2.7942691526945045 4.209865014634049 250 178 227 1.0764909196515113 2 2632 8 5438 7 3254
1606 5.305671881694825 3.631918541857843 7.205201566744473 90 41 26 0.22638466728664297 2 3828 8 5430 7 7146
1605 6.350595880444004 3.629929568749127 6.955784927919717 76 39 31 0.5578858907854471 2 2395 8 5418 7 4938
1604 6.593277319040263 2.7828813079750754 4.218834682484491 110 9 32 1.5109339654035743 2 2627 8 5409 7 3219
1603 4.2360038290281725 4.668620044108495 7.590700223578084 217 192 205 1.2691976227787356 2 7696 8 5359 6 7292
1602 6.488815649185467 3.157908677047133 4.342816473468018 190 220 203 1.2228094947872934 2 4089 8 5324 7 5186
1601 6.499323076732468 3.224336726876775 4.552325595912096 172 205 101 1.2162307798145908 2 13097 8 5318 7 4056
1600 6.0392057610508765 3.9185717683122396 6.961802926957647 5 32 55 0.5331827797599759 2 2378 8 5317 7 5331
1599 6.022731257279025 3.985248797448614 6.986477777455954 16 9 0 0.45316889364259616 2 3717 8 5304 7 5345
1598 6.058701160316558 3.9852271495062035 6.967529050775177 8 1 2 0.4922070033293566 2 2654 8 5303 7 5346
1597 6.212245596316123 3.376910793324375 4.7138861236139995 18 11 21 0.831672690701517 2 2682 8 5293 7 2923
1596 6.197547923405169 3.372510449964665 4.67122173796357 219 242 197 0.863726557167726 2 2674 8 5282 7 3387
1595 6.216190249481536 3.306927935066288 4.68615928756279 21 4 0 0.7829115449627686 2 4122 8 5275 7 5181
1594 3.6795105691588383 2.4161274001170248 7.574369785660773 120 62 42 1.845082801395345 1 6267 8 5254 4 7035
1593 6.058221425353126 2.4693711618013467 6.479134726834435 45 115 211 1.036438382460309 2 2510 8 5236 7 5044
1592 3.721393831465316 2.3786853119136597 7.573320493072879 101 38 20 0.36050936586550275 1 6224 8 5234 6 11292
1591 3.91664960285432 2.4151474864758873 7.5670756785504105 92 39 25 1.4636617485131902 2 4487 8 5233 7 2182 6 11299
1590 6.267175767737978 2.576572677277405 6.511233331003588 76 132 215 0.9339464847095131 8 5220 7 5008 2 4408
1589 4.977404546185974 2.6720713422346294 7.259994629006966 123 61 38 1.0973272080418957 1 6448 8 5216 7 6776
1588 5.968456911116967 2.632028951035638 6.438872051386287 0 27 91 1.1574147323118724 2 4371 8 5215 7 3159
1587 6.713622889339159 2.2320411687578425 4.648502728124637 115 0 13 0.340143269719508 2 2335 8 5210 7 3164
1586 6.670548497499229 2.2391061918546282 4.676915476389099 110 31 53 0.6388805464543345 2 1669 8 5209 7 3166
1585 6.078208794757653 2.5893482421269725 6.382203159264923 4 54 113 1.3639594245923614 2 2618 8 5195 7 3154
1584 6.74942632337538 2.260799495815061 4.643088420632413 98 0 22 0.5842109079756694 2 5323 8 5193 7 6410
1583 5.145915692081766 2.333547674786525 7.216178823102996 125 67 47 0.9735540033202117 1 3379 8 5179 7 2178
1582 3.857041186372704 2.315377166621693 7.517469735653699 83 30 16 1.1229755958445025 1 2212 8 5139 7 2375 6 5236
1581 6.9553284172110255 2.1971024616562262 5.081292974137255 108 2 35 0.18061278068822081 2 4360 8 5134 7 5013
1580 6.202044027911852 2.374861533928352 6.491720995813895 0 36 111 1.0081657637121113 2 2498 8 5131 7 2383
1579 6.190822734781829 2.66411973254034 6.3925392976142685 42 81 148 1.1500371930073874 2 4378 8 5113 7 3130
1578 6.626484647738459 2.599056212384128 4.769620124855134 207 136 152 0.7766528947693551 2 3891 8 5099 7 4967
1577 6.230437749799497 3.256523388649325 6.9196584702339985 20 2 8 0.5272683300538371 2 3843 8 5062 7 6328
1576 6.635338590762916 2.7277379026362305 4.830889956697673 15 6 7 0.9203293272683494 2 1488 8 5053 7 3177
1575 4.45321437575586 2.7432205063491635 7.425805371264592 131 67 29 0.49323979434978044 1 6353 8 5044 6 11162
1574 5.639992817108704 2.660449001149828 6.320513593555501 101 45 28 0.29158680672862236 8 5042 7 3181
1573 6.8108852026603595 2.566844434674442 5.176087062387399 121 168 148 0.6036543743543663 2 2303 8 5036 7 3081
1572 6.805770964242236 2.541198551968883 4.747066587546435 54 106 85 0.7352472184115544 2 3823 8 5013 7 6372
1571 6.036124032028693 2.8109607343744796 6.475533558241776 0 15 69 0.8365170577297288 2 2326 8 4995 7 3169
1570 4.224947648532372 2.790962684221996 7.41396682787211 105 38 6 1.4326844666702314 2 4398 8 4993 7 6709
1569 3.6755936850180153 5.518784512445452 6.98599687436171 171 170 168 1.3809161575623963 1 4829 8 4967 7 2961
1568 3.0629866874502936 5.712600550940519 7.477571269332711 103 94 94 2.3428436500800656 8 4962 6 8980
1567 3.265789555613719 5.723435577952538 7.396052736004897 90 87 78 2.7534958634242632 8 4917 6 8976
1566 3.0217489538450955 5.551634834390756 7.579342383558152 74 110 203 1.0695226713633028 8 4878 6 1102
1565 3.32868898986042 5.428809890438629 7.056502750861312 60 86 159 1.663072618101708 1 4861 8 4855 7 3359
1564 3.4662103797109403 5.506308760838128 6.955672770810412 222 215 196 1.8347625104371412 1 5384 8 4827 7 4737
1563 4.888468435910617 5.633771760135834 6.668003265458756 202 188 188 0.7318366026522597 1 5382 8 4743 7 5307
1562 3.5254899589718254 5.3044498507172255 7.50601812737563 109 130 192 1.4453854055206843 2 1029 8 4649 7 1236
1561 5.951500893828334 5.5582361908800975 7.129754186471839 176 175 167 1.499827922519777 1 2803 8 4637 7 4401
1560 5.859700809590391 5.501036417573896 7.041641691326387 167 179 175 0.5854440521734755 1 4920 8 4629 7 2909
1559 4.477830986087972 5.576452329609684 7.2555026639332185 237 226 201 0.5539122444789185 1 4956 8 4535 7 4805
1558 4.428394961086101 5.575990592822273 7.239500176093902 86 69 61 0.6266457293590239 1 6652 8 4486 7 6132
1557 2.2555569809989744 5.371383552165201 8.03205372860191 153 142 140 0.9608888137112969 1 6878 2 4088 8 4457
1556 3.857517513387999 5.5095653234099204 7.683110733656186 140 135 129 0.5939116983274346 2 3982 8 4452 7 4434
1555 3.6383592112695107 5.4902410328092435 7.702947928935764 211 208 203 0.6292943040810334 2 3984 8 4449 7 4438
1554 3.960107921631081 5.55126029176205 7.67938985072164 234 231 224 1.5851959114426901 1 4899 8 4444 6 9341
1553 5.061789764486113 5.63593690118103 7.249476774159794 144 127 119 1.2094215371733388 1 4992 8 4430 7 1947
1552 7.19011601740045 -1.1654225817120074 6.562399695544304 214 176 168 0.7367766762017703 2 3519 8 4403 7 2547
1550 3.1281772380288273 -1.6166804690738648 7.400451826808238 172 120 124 0.5682379356635893 1 2305 6 6000
1549 6.631575491970499 -1.1133264367006808 6.665993456491394 56 14 8 0.5539482503668626 2 3481 8 4341 7 4255
1548 20.69080675574135 -7.6582903344533255 36.34306062990731 176 161 190 1.63839998695074 1 3748 8 4339
1547 6.780951345880611 -1.4498780385339423 6.614911905728547 44 1 2 0.16357018875431742 2 6086 8 4298
1545 8.40327669398209 -4.237624435984153 15.572896159931402 194 150 151 2.588786568890586 1 7592 8 4273
1544 20.885691366436284 -9.688569144454146 36.71549410093985 37 0 1 0.8450994708086752 1 3673 8 4266
1543 3.3952302012255666 -0.7480541741800144 7.521664885298677 181 132 122 0.04693666073678107 2 6973 8 4241
1542 3.596854549864893 -0.716240357308674 7.430818022005021 173 118 107 1.9220523570323285 2 11293 8 4240 5 9043 3 9825
1541 5.893306357862019 -0.29676337887634 6.072389867390395 196 141 136 0.5993077372391934 2 2212 8 4229 7 2734
1540 5.828878596587364 -0.16575861738987582 6.119647824641948 167 113 106 1.0308931886562973 2 3012 8 4225 7 2783
1539 3.1959611728209545 -0.6113998359900659 7.496484777209208 67 48 46 1.231588326543312 1 2460 2 2965 8 4208 6 3348 5 2797 4 2273
1538 6.3747326907796715 -0.22925553400415577 6.7038678926615285 188 186 185 0.568655702684309 2 3010 8 4201 7 3409
1537 3.3174340156357482 -0.5687257598375755 7.476053073358382 180 127 118 0.7603115921517872 1 7296 2 2915 8 4197 6 10217
1536 6.613623817414077 -0.23058881325301378 6.811338184610244 136 91 85 1.1994234862316273 2 1451 8 4195 7 1704
1534 3.6820899144817987 -1.1716033110598143 7.344348005957553 194 144 137 1.264425408766906 2 3557 8 4166 6 6071
1533 3.6839232309166094 -1.1243779821189022 7.359450896450617 197 144 136 1.2236017382276207 1 4035 8 4159 6 6109 4 8138
1532 5.9618017961884915 -0.7134048398834846 6.092917440942623 193 145 141 1.1127709603344906 2 2782 8 4158 7 7607
1531 3.426694359782837 -0.832445048612819 7.4407730910422565 183 132 130 0.8895093155342995 1 1406 6 1973 5 9021
1530 3.7026502896477913 -2.337575667658057 7.2992954171866105 109 80 94 2.2103512613520926 8 4112 5 1130 3 443
1529 6.25468947406457 1.9129686647964936 6.846407380740937 40 24 9 0.9181111243114648 2 4239 8 4034 7 3868
1528 6.101488952510651 2.131413959426528 7.137790962547122 123 69 45 2.171634173053553 2 4347 8 4032 7 6262
1527 6.275819503393613 3.3083802679523497 4.685220388907796 213 235 190 0.6631345885997739 2 889 8 4008 7 2077
1526 5.129169457643779 4.636009688410816 7.3612618541537165 35 1 0 0.6504090485258488 2 4074 8 4003 7 6957
1525 6.272855579054058 2.6080227807932346 6.3919201132504195 36 87 171 0.6971195244691896 2 5719 8 3977 7 6802
1524 6.03948131313977 -2.2068170796420197 5.961488598852095 224 190 189 1.3041017539178745 2 3329 8 3959 7 3940
1522 4.678389877589679 -2.2296697701787735 7.070832477286527 176 110 92 0.606338982148248 2 3393 8 3925 7 8117
1521 6.1205898527915865 -2.547037236911993 5.908166041834028 185 143 145 1.2022955195281713 2 900 8 3890 7 2153
1520 6.629588969949372 -2.599823193233757 6.520475470153679 251 249 228 1.379829425526868 2 3260 8 3868 7 2599
1519 6.661539905068328 -2.5065626662613685 6.497468708560655 45 34 43 0.9643608327740457 2 6395 8 3859 7 7913
1518 6.725262196126199 -2.4984532457224753 6.519902278576547 118 111 119 0.9002369594215821 2 2054 8 3857 7 2582
1517 6.032717160034287 -2.476662702463721 5.986971386575318 153 111 110 0.1768396359185439 2 3251 8 3850
1516 6.597306701454578 -2.6829710130403863 6.47471351183457 13 1 3 1.1295300642268868 2 1991 8 3848 7 2600
1515 6.547381818048343 -2.669278376006163 6.51701709019244 50 39 47 1.3091183861648101 2 3255 8 3834 7 4090
1514 3.205018546286467 1.0710268170955006 7.62363564760346 130 58 10 0.5880418320610648 1 3140 8 3829 6 10353 4 9181
1513 6.465103493040533 1.499959699922487 6.976805437530553 101 55 40 1.3685806264950402 2 2583 8 3798 7 2277
1512 5.461769720272643 1.4195407347508946 7.11084371605161 79 38 33 1.4692966671296912 2 1287 8 3795 7 1543
1511 5.386799833757497 1.404887397329341 7.092682408955396 92 56 56 0.8392991232801815 2 1288 8 3783 7 1535
1510 5.127503498103037 1.2843772321830247 7.138909801499869 139 79 66 0.28634745753143753 8 3780 7 8125
1509 5.460618805936649 1.3857594484650981 7.077921794386864 107 67 65 0.6736018237237952 2 4272 8 3766 7 3787
1508 4.463386701947023 0.8860315649646344 7.404409620734883 112 55 44 1.9524893073804008 2 3110 8 3764 7 8818
1507 5.288905662891015 1.0216136004158232 7.072805912150449 117 63 58 1.3295568726045854 2 3087 8 3753 7 2343
1506 6.217549843035665 1.1883716184478237 6.862609537145844 108 51 32 0.7703487303962921 2 1953 8 3729 7 2301
1505 4.9550506282287685 1.0101553032039867 7.181084876513678 127 60 41 0.6963549399205563 2 2153 8 3712 7 2279
1504 3.0633135099429922 0.8258544830197512 7.667535797753172 131 71 47 1.7690253692644862 1 3063 6 2707
1503 4.055245412893151 1.8973695061794376 7.578054784015866 106 41 27 1.8181000028224894 2 4625 8 3690 7 6008
1502 6.162112316677171 1.9252891266703462 6.900313726195622 137 111 105 0.8085269531474116 2 2508 8 3687 7 2469
1501 6.312566485048856 1.9300425245831951 6.895473150105989 125 68 38 1.4170732161812563 2 1653 8 3679 7 3344
1500 6.199008557279477 1.8661395712389925 6.845800249726876 21 6 0 0.8908311056828927 2 2799 8 3676 7 3860
1499 4.272814150923805 1.8538794771827216 7.392163625850636 104 46 42 1.2233151222714531 1 3517 8 3657 6 10014 7 8331
1498 6.163417789287905 2.036695083872738 6.673805669715609 251 248 226 0.9031822736714686 2 4506 8 3647 7 3680
1497 6.1431163455678925 2.000550923426581 6.856501448744161 223 230 226 0.7116934107192137 2 2790 8 3629 7 3705
1496 4.597412971728629 1.493270471335482 7.34993603361221 146 83 66 1.008844049724465 2 4350 8 3623 6 4686
1495 4.2862024821194025 1.482467343627883 7.390912078383401 93 30 15 2.027921800004895 1 3247 8 3621 6 4624
1494 4.559129503630913 1.6233489089684476 7.370726818217387 114 54 30 0.6333466164456991 1 3214 2 4326 8 3569 7 3885 6 4642
1493 5.807314127086976 0.21078027932933088 6.048468946548705 187 138 124 2.3436411690943126 2 2263 8 3539
708 5.145031800292303 2.3917475185711696 7.231132690285336 100 47 5 0.8828493423132003 2 5633 1 6282 7 3732
707 2.775075803044531 2.5286608025735418 7.763700608236365 58 30 6 0.8314330038019737 2 5632 1 3172
706 3.041422068772926 2.513246377825621 7.749230550850071 125 79 40 0.7454579826087596 2 5631 1 3204 8 5217 6 11196
705 3.468709109733853 2.4582341437122355 7.653706833743855 137 84 42 2.0404384345143884 2 5626 1 6251 6 12308
704 4.936234155898437 2.3448036610421497 7.279357687035642 140 88 31 1.0407187982217947 1 688 8 771 7 791 5 1874
703 2.6510218592480483 2.367600213765219 7.796781123069745 36 41 9 0.8929821741700087 2 5607 1 6255
702 3.5916310426709255 2.3128632131741274 7.554021298230651 123 71 34 1.625629091471503 2 5605 1 6317 8 6293
701 3.622496412267598 2.312415828987684 7.5925987344906645 113 62 33 1.402283774402463 2 5603 1 6327
700 4.973670422483145 2.2165227937126533 7.177917039593209 106 51 0 0.3080347398538729 2 5601 1 1325
699 2.467125270349378 2.4446378356861542 7.84441454575298 21 31 6 1.694243618445488 2 5591 1 6460 6 11193 4 6957 5 6587
698 2.8427248163868595 2.3871861705902284 7.756132744309919 116 74 33 0.19765051108388582 2 5581 1 3712
697 3.7781510510898735 2.3519410047698996 7.546854380372902 127 74 40 1.2476093057081719 2 5579 1 6243 8 6309 6 11339
696 5.316093464470532 2.5180129664428756 7.19984187881726 52 11 0 1.0071634432500263 2 5575 1 2126
695 4.4872021275302 2.542934297398804 7.365875954235889 135 80 19 1.7067139320639788 2 5573 1 6428 8 5206 7 6592
694 3.737511424009887 2.606376685451841 7.601560813621662 117 83 48 1.3303404054861834 2 5572 1 3151 8 5031
693 3.8494563247533757 2.654144717760072 7.571209776161321 118 62 1 0.9505727488681086 2 5553 1 3324
692 2.827030047853418 2.5409046412506657 7.770699784451954 132 84 48 0.6904999915917317 2 5523 1 6371 8 5650
691 3.8471331334894763 3.7196090997773053 7.597520860091746 98 56 11 0.4271296070591679 2 5499 1 4583
690 3.243846417097987 3.7648251682446303 7.739734800868038 63 47 41 0.33831547969451214 2 5495 1 4541
689 3.717002523008207 3.7163744908142933 7.670788958987703 87 51 4 0.8693089320720876 2 5488 1 4581
688 4.370822228574834 3.5390375137206824 7.483949311447282 175 134 96 2.207007738599408 2 5459 1 1911 6 12259
687 3.6808350771886644 3.58924668120917 7.596764416594539 148 98 49 0.008794458234723182 2 5458 1 4562
686 3.863816220681332 3.570840535619401 7.595337128038511 147 98 39 0.32976945727241946 2 5449 1 6211
685 2.857379971540417 3.6722225893773937 7.856399987388626 60 54 1 0.8198946736370795 2 5448 1 1744 8 6723
684 2.9245812248652356 3.6706273017917193 7.841343562053424 30 19 0 1.2933963962510846 2 5446 1 5800 8 5505 6 8671 4 5095
683 4.125329884703185 3.6418589376502513 7.539833348379098 121 71 18 1.0152683372568854 2 5442 1 6195 6 12229
682 2.713509258887811 3.763746974115449 7.90849679391739 102 69 35 2.2648103840774425 2 5438 1 6135
681 4.973505461184981 3.5322270381572918 7.346638418459667 62 29 0 0.6343647472102514 2 5433 1 6182
680 4.867727246083102 3.522733752388042 7.335886660244485 100 64 30 0.49303335434706463 2 5428 1 6158 8 5762
679 3.4884459233190874 3.6880426846036207 7.714691003001114 90 57 27 0.47922431494893736 2 5426 1 4580
678 4.977677258365153 3.808341739767311 7.29165334638915 120 69 6 0.1920160449019671 2 5420 1 6144 8 6730
677 5.225016538670487 3.8376218640792596 7.305010117970262 114 65 0 0.9716933305292385 2 5395 1 4586 8 6864
676 5.299370715075236 3.788046666224498 7.208330546788844 143 95 31 0.3917758341871796 2 5392 1 6152 8 6848
675 5.1435568845029636 3.801412542855114 7.236129934620725 113 64 0 0.9624965944066202 2 5391 1 4585 8 5510 7 5243
674 4.97156342479381 3.7139913359748737 7.262083080716415 123 72 7 1.9128922005651934 2 5355 1 6111 8 6873
673 3.49599743523886 3.412298624841381 7.645324826814194 66 39 12 1.372223950207567 2 5329 1 6171 7 6526
672 3.8631533537184186 3.3889784474138547 7.60493390031265 143 98 60 0.6131642840738245 2 5326 1 5585
671 2.8677386372989986 3.4677885021580743 7.83486587416294 59 55 8 0.7109202215893977 2 5324 1 4719 8 5426 6 7227 5 3483 3 1480
670 5.177474332770575 3.1346381232878557 7.225399184691557 125 77 31 0.2578987696975148 2 5290 1 6044
669 5.521145210050494 3.0152390520087886 7.107662173633957 81 38 0 0.7063833759221567 2 5282 1 4703
668 5.266564849563628 3.099961207095939 7.227213459150425 52 11 0 0.7821534768546963 2 5281 1 3040 7 6390
667 2.8593055511120404 3.607754446386401 7.843661062084726 70 68 31 0.39217933523490894 2 5258 1 4579 8 5487 6 7151 4 5134
666 5.254553998392192 3.410314662377814 7.25054401039115 88 52 26 0.3717318527397082 2 5241 1 5989
665 3.0660633628250333 3.5473559604836566 7.800201166705553 94 50 13 0.33530680597930645 2 5203 1 4735 6 8340
664 2.868048803239562 3.550648171268894 7.838150552021532 101 114 88 1.452219223792035 2 5201 1 6191 8 6813 6 7164
663 5.247235103945798 3.3278800774439175 7.253828603900097 44 11 0 0.40968909725993513 2 5196 1 6076 7 6383
662 4.233923550723407 1.128182134691144 7.389085125499542 82 41 13 0.4256657702109117 2 5190 1 7873 6 10421
661 4.65075898817875 1.1687759627396586 7.263116328311623 139 86 52 1.5779536515104766 2 5175 1 7878 7 3823 6 10436
660 4.729931098491152 1.155913290840327 7.247487651173108 165 103 51 0.4147394220506251 2 5172 1 3190
659 4.310785146993967 1.1606836401899474 7.348373817483776 122 73 40 0.041075372583538466 2 5171 1 2105
658 5.335167037065666 1.1155217731944382 7.119145321787676 223 185 155 0.18171253732090414 2 5159 1 3164
657 4.420350984675976 1.0492732728075005 7.328194184192138 140 85 55 1.852688436260987 2 5149 1 2049 8 7853
656 4.156393959723751 1.3191689393734007 7.345070930851739 123 78 34 0.7922215829823638 2 5116 1 8310
655 2.8307666750512213 1.3522866374982274 7.742701655502514 122 71 18 0.936283700674843 2 5112 1 7734 6 10555
654 5.079179553063659 1.3832483939985774 7.201432125547397 108 61 39 0.17171944044548712 2 5098 1 3051
653 2.653473184185719 1.4213434337205142 7.753243064087379 223 235 195 0.35903607570023754 2 5094 1 7808
652 5.485132003333873 1.321132187946182 7.067801382768054 127 81 47 0.2258571996752583 2 5085 1 1235 5 4242
651 3.2996334151663635 1.2469908004265131 7.639795883233677 132 84 48 0.8945604154761566 2 5078 1 7888
650 4.56507763257482 1.1993192575219127 7.250493337637937 112 67 44 0.5327495409163483 2 5075 1 7837
649 4.353783875964336 1.2695231384970225 7.337565904207437 131 75 42 1.2525263364556185 2 5058 1 2089 8 3768 6 2754
648 4.564174592522711 1.2577013930504881 7.2956005098882555 47 18 2 1.759567717083869 2 5054 1 826 8 924 2 532 7 8126 6 916
647 3.0457827837854996 0.8006987019517129 7.6179393523224705 96 44 0 1.074580153958126 2 5006 1 8401
646 4.344813926182239 0.6393907361649984 7.295948283050616 111 61 24 2.2633694886935496 2 4999 1 8421 8 4031 6 10628
645 4.448494837687819 0.6486164163031982 7.29011809643088 145 93 71 0.36049939852596374 2 4996 1 8439 7 3441
644 5.434389042100666 0.9471674049508547 7.06087033888683 63 32 12 1.023719595648508 2 4964 1 8336 5 4117
643 2.8409399507769395 0.9807392746922218 7.711848184643842 150 84 6 0.9033101049011965 2 4963 1 3758 8 3810
642 4.364285016714548 0.9507896404342887 7.323975168580504 152 99 59 1.3412306544319212 2 4958 1 8412 8 3710
641 2.5466095039581553 1.0285671538063623 7.799011076061107 107 47 0 0.16136219384710015 2 4939 1 3141
640 3.279375661636052 0.897163000904623 7.587446903871284 146 87 31 1.9209677122264341 2 4893 1 1298 6 4572
639 4.9695940210237985 1.9763299426414207 7.238873072267944 156 98 35 1.381428609580164 2 4870 1 531 8 3669
638 2.984615249398286 2.1163364821935113 7.706771771987174 251 246 206 0.6815637011680328 2 4862 1 6433 8 3992 6 5220 5 2869 4 5196
637 3.0365372082068096 1.9999316196548738 7.734592295810289 14 14 2 1.324591180224933 2 4846 1 6712 8 5966 6 10935
636 5.6331469564047945 1.8792879201890802 7.004672841704092 86 42 15 0.4934845222899017 2 4814 1 8127
635 2.1808849943581405 2.3405641126248056 7.963667101096781 126 79 32 0.7967429069477511 2 4812 1 3444 6 4974
634 2.4293604473412462 2.313241054579567 7.848517692667923 70 61 50 1.067873937008658 2 4810 1 6272 6 4972
633 4.98882348575576 2.1538668897069546 7.2062966524360235 109 56 2 1.3293103078634405 2 4799 1 1329
632 3.9431854040871093 2.189611824262512 7.4780191587855045 90 40 13 2.1794463433388174 2 4797 1 6057
631 5.148356646937193 2.215621551314896 7.180858297065476 122 69 29 1.8294261952499677 2 4792 1 3407
630 3.829007838889068 2.2773411753381 7.537603595910318 90 39 10 1.5998136168432757 2 4783 1 8385 8 6265 7 6430
629 5.408565051578015 2.1732041225186265 7.128556722172894 78 39 1 0.6745469781195409 2 4781 1 6898
628 3.906080221672869 2.100642245919189 7.502996067822904 126 70 47 0.49136611556738524 2 4765 1 6133 6 5251
627 5.2122399683901275 2.040136569696417 7.173080834019893 91 36 5 1.1152306951551598 2 4761 1 2193 8 1385
626 2.6447913915891283 2.1654236149078323 7.815367856480281 133 139 101 1.6191537639691012 2 4759 1 3386 6 11249
625 4.332131647173204 2.1662058632026056 7.424988259330833 129 72 22 0.33624514457101323 2 4753 1 3406 7 5810
624 3.865943952069348 2.181118287932327 7.528186679390587 92 38 10 0.3970807349025567 2 4752 1 6372
623 3.127144371768434 2.186338642938606 7.717479894560401 112 63 0 0.46047261964125835 2 4743 1 3380 6 11236
622 4.096299610050223 1.568550636218054 7.447418345389839 69 27 3 0.3293625622497385 2 4733 1 7816
621 2.5745835819548164 1.5657137744745298 7.772025235500348 223 239 200 0.6830944985364111 2 4724 1 8076 6 10507 4 5616
620 4.20668393233373 1.5977348180755206 7.388163160718212 140 85 54 2.1579960417536377 2 4702 1 7824
619 4.269910838326411 1.4595925858390582 7.38857517514916 145 92 60 0.769528552628795 2 4694 1 7778 6 10549
618 2.617216975917671 1.4603596864026054 7.759232737843221 39 61 25 0.2567267614537926 2 4683 1 7830
617 4.255689901525231 1.4968049060548079 7.410069788860271 137 83 45 0.28222029040257346 2 4675 1 7737
616 2.73265830509155 1.5289064776622994 7.722966603255472 85 103 63 0.5982444106399994 2 4673 1 7803 8 8113
615 4.08893199836439 1.8755639076999702 7.470163669048885 130 75 23 1.1030396172812933 2 4626 1 5870
614 4.52693084272985 1.8482072523997837 7.371276890547332 131 72 32 0.649049844706325 2 4624 1 5711 7 8362
613 3.0566727362336272 1.7465811198975614 7.644884393284629 55 55 19 0.15545994284724202 2 4611 1 5608
612 3.077464762893207 1.7370557921527854 7.676083644428682 63 60 29 0.8265724363074957 2 4609 1 5513
611 4.3038211270890026 1.7809128839448387 7.398441427853006 120 72 50 0.020648978493672733 2 4593 1 3487
610 5.637019594814402 1.6851034080742937 6.972469834380467 93 48 21 0.9262081845672098 2 4588 1 3210
609 4.134059986571962 1.7519634445542236 7.430832558881685 144 91 67 1.2897351421834264 2 4584 1 3489 8 3682
608 4.917503737010699 2.487922012115824 7.266765818538972 131 78 33 0.22979558378283327 2 4575 1 3428
607 2.985139628151223 2.5957618821581554 7.752223586404418 75 82 30 1.773700144995727 2 4571 1 3315 6 11161
606 3.0402748191022346 2.5633637572104395 7.744660605026456 119 77 33 1.005741929730733 2 4567 1 6370
605 3.522367932945218 2.522030339072821 7.620063970648743 122 78 43 1.104607812011525 2 4566 1 6409 8 6219 6 4901 4 7074
604 4.569688656895638 2.4368681208066403 7.3823357127181835 130 71 0 1.1314849523578556 2 4560 1 171 8 6272 6 252 5 366 3 325
603 3.9005067855188087 2.7276069868512685 7.557959536977489 159 101 37 0.7902705838719841 2 4545 1 4680 6 5070 3 4999
602 4.513329545495091 2.5408676322051247 7.358384748903923 146 90 31 1.1787511392757666 2 4541 1 1332
601 4.353878394680749 2.629283846780975 7.432839039349061 152 97 30 0.7435039363487695 2 4538 1 6445
600 3.4372165273705195 2.716962203778915 7.645222290452769 120 84 59 0.20229905926946454 2 4527 1 6398
599 4.809163111168189 2.266324885524454 7.293636993756065 135 79 22 0.3570480094389952 2 4524 1 6432 7 4030
598 5.17070173719616 2.2193338105044482 7.173916163986264 96 42 6 0.19204859926588755 2 4521 1 3401
597 3.8646355942082247 2.230927361757927 7.521729960236443 120 69 40 1.6056625538377554 2 4510 1 6309 7 3766 7 3773
596 3.846720447586101 2.234739777942991 7.537200902498003 91 40 10 0.29322136153096 2 4505 1 6307 8 5999
595 5.178482086461877 2.14571059250831 7.16584809421142 95 41 4 0.2266767250454054 2 4504 1 3764 8 3444
594 3.7666221962348567 2.255610008084725 7.530725649700201 93 40 9 1.5446980175069627 2 4499 1 6295 6 5203
593 3.658196195610346 2.4659534588615406 7.582439224897949 122 73 43 0.690981854282637 2 4496 1 3430 8 6131
592 2.6486643001530537 2.503767134674043 7.812953632717749 51 52 34 0.9917728755077185 2 4493 1 2115 8 5683 6 4939 4 5239
591 5.197489020894158 2.3326089597162984 7.1816702201365805 90 39 1 0.581536659315129 2 4489 1 6296 8 5988
590 4.384127610645906 2.381151028724651 7.41688627813182 77 35 0 0.4549615917532332 2 4488 1 3466 8 6298 7 6613 6 11325
589 2.645985913371598 2.4645521481184485 7.814999797123218 42 46 19 1.4414157584245804 2 4486 1 3521 6 4896
588 2.46248739400082 2.4793711099132407 7.864942490486284 34 43 23 0.9951568951692943 2 4483 1 2112 6 4473
587 5.150291580356341 2.2566181688300224 7.194238833962948 119 66 26 0.9723433252273109 2 4472 1 3417
586 5.231470819850951 3.076153249879471 7.21931466993954 114 70 25 1.7363321028396292 2 4461 1 2145 8 5096 7 5085
585 5.19233791840871 3.0699881354248673 7.225691824757573 129 79 30 1.3844623106796092 2 4455 1 6050
584 5.2125559038655505 3.045371140417817 7.210690428862392 96 50 2 0.13431663203049174 2 4453 1 6058
583 5.132532885743161 3.0360172482209498 7.241910418032714 118 70 34 0.15991528646497477 2 4450 1 6060
582 3.6445768112799692 3.4364075701199748 7.600433541386449 158 131 110 1.5305795630987178 2 4435 1 1809
581 5.162063583465289 3.3053529076570434 7.240897045261026 91 46 13 0.7565120577671259 2 4433 1 4674
580 4.459765598276399 3.353337541396037 7.4160325106882565 107 56 11 2.0966910943038624 2 4432 1 4739 8 5927 7 3059
579 3.1291380698984725 3.5020890537177305 7.794175962417077 140 99 48 0.9125286406141647 2 4431 1 6215 6 8375
578 5.316350597814854 3.2244943278780362 7.2120324376255995 76 37 1 0.662272199471838 2 4428 1 1141
577 5.275847453755011 3.2274912918287963 7.221934627876394 86 50 26 0.9641275677529046 2 4426 1 2152 7 2040
576 2.950825687546692 3.4386298448688963 7.822991609407131 248 239 191 0.4025247380272773 2 4423 1 6166 8 5436 6 7233
575 4.466781927016697 3.283108770797094 7.393534817847451 112 61 6 1.1127348216068316 2 4422 1 6069
574 2.9479127587306326 3.4055246142519247 7.79818706056511 82 69 4 1.6825032334978243 2 4421 1 6167 5 1908 4 7159 3 1346
573 4.076554051670779 3.4050471293640827 7.538549407237052 139 90 40 1.2721715821182948 2 4416 1 6006 6 8310
572 2.60919041005192 3.0030820337783037 7.841009310575911 65 67 37 0.8420986499428655 2 4411 1 4659 8 5607 5 11013 3 10946
571 2.5815400055004076 3.220387690250731 7.888048311409052 42 38 18 0.47378126507441176 2 4402 1 4740 8 5478
570 4.47166699969916 2.736990042618897 7.411515688057976 101 48 0 1.341577740336856 2 4389 1 2172 8 5048 7 5088 6 11223
569 4.582009057429311 3.0374324385612472 7.38222718211439 145 94 41 0.17821961602264538 2 4384 1 4651
568 5.531457463322808 2.862445943226669 7.09039674848953 90 41 0 0.07001908306282605 2 4372 1 6401
567 2.657148566826016 1.5721006010433571 7.751457543282368 77 89 49 0.36565314763777357 2 4358 1 3518
566 2.5192069964522297 1.553576542132616 7.776470253557142 232 218 179 0.1731646922392813 2 4352 1 8073
565 2.7734441676958848 1.5108876523853938 7.761041363993848 50 30 4 0.029632404075823012 2 4340 1 7789
564 3.0591080156546298 1.5097162618809243 7.681580542167718 98 117 33 1.9604262843932403 2 4339 1 532 8 611
563 2.9752561563577813 1.6802921431392064 7.684595613547722 250 250 219 1.878203107228334 2 4328 1 3492 6 10665
562 2.7014268832002513 1.6739959456606355 7.74025184110599 235 249 182 0.7595214477677907 2 4325 1 3494 8 2188
561 2.6745815682689194 1.6403344616883004 7.741045429679906 227 233 193 1.3070021001932541 2 4322 1 3490 8 6055 6 10816 5 6733 4 6003 3 2790
560 2.5772890080739312 1.6307892225720657 7.758149277250984 246 253 224 1.5130541361899414 2 4320 1 3474 6 10738 5 5936 4 6001 3 2795
559 2.8611452043166428 1.6183820617832272 7.681910854282134 88 43 2 0.49926732306452304 2 4317 1 8039
558 2.5341326610772583 1.6251627822930488 7.779314585268272 174 181 147 0.21355306769685622 2 4315 1 3485
557 2.6942750572185967 1.5758497903408375 7.732545510149282 206 219 174 0.019111873794122835 2 4307 1 8077
556 4.531319965070649 1.5629214357081 7.2831049567500035 121 64 21 0.6616210563761774 2 4305 1 7748
555 5.219438282566916 1.2271314482413207 7.098181001382464 160 109 56 1.058780347875417 2 4301 1 3137 8 2255
554 5.320474795426916 1.1743921727180469 7.055810871892342 168 107 60 0.3241509395294013 2 4293 1 7857
553 4.488659837575374 1.173729223307544 7.30190764067986 105 50 20 0.5140278325368048 2 4290 1 3138
552 4.569333090775614 1.1739741670417336 7.300430878048183 134 81 50 0.6510327132606053 2 4289 1 7844 8 4038 7 3825
551 2.9087538196482416 1.156678265366235 7.672325586611489 137 85 28 1.5777513028298291 2 4284 1 7917 6 10376
550 2.716875004186913 1.45725926233939 7.727982799280776 245 245 222 2.29968833333258 2 4269 1 3213 6 10458 5 10976 3 12142
549 5.507860086309159 1.2603356464698574 7.0054919944606535 92 55 28 1.3819505907688907 2 4263 1 823 8 7902 1 7618 7 1033
548 2.630584843492285 1.4207158744769004 7.764079693072644 33 56 30 0.6704538172221614 2 4262 1 7807 6 10468 5 6879 4 6266
547 2.958985924353179 1.403349223972323 7.715443811498371 123 72 19 0.6498877013527832 2 4259 1 7741 6 10478
546 2.8804468940996615 1.4100628620695936 7.71907942757918 140 87 23 1.5985550947591687 2 4249 1 3197
545 3.0117647411823794 2.0547911712463702 7.6895453103135925 86 90 54 0.9007331686198016 2 4236 1 3405 8 5165 6 5293 5 6023 4 5206
544 5.643005940583548 1.5853371996073378 6.97194602685518 94 50 23 0.2293150293965574 2 4235 1 2091
543 4.418833718201607 1.9747808086151604 7.352286874914275 136 86 51 2.130078026731423 2 4234 1 1163
542 5.054854863940085 1.9479049529600698 7.197035204814846 138 84 37 1.2193852284401583 2 4231 1 3572
541 4.868283547218977 1.9697013096315747 7.270631121873127 109 51 3 0.8949140721107934 2 4221 1 3577 8 6043 7 3709
540 3.965214356447775 2.195865308060343 7.49674849795044 114 65 33 1.69979467610838 2 4220 1 3364 8 5188 6 11275
539 3.0174204358941155 2.2472742383759763 7.722575083392575 80 87 43 0.06034546067663536 2 4216 1 6328
538 2.67505974221571 2.191365164022333 7.7853124231632105 60 61 44 1.0647151749846993 2 4199 1 2226
537 3.898048703845489 2.1273721456288177 7.511801109370605 122 67 45 0.9762777881410477 2 4198 1 6207
536 2.7003768227334377 2.1782303711968716 7.764478510532129 240 244 218 1.0376645577181953 2 4197 1 6286 8 5156 6 5242 5 6945 3 4982
535 2.6988007530833764 1.7884555583939175 7.760229826145102 89 93 58 0.6600118546734925 2 4165 1 5915 8 4033 6 12294
534 4.10672390968633 1.8752112907678795 7.446821428158148 101 46 5 0.2772109351332878 2 4156 1 3570
533 3.098153370946624 1.9074097490241926 7.6602626622792735 46 26 8 0.7022176575849316 2 4155 1 5368
532 4.933636679590687 1.8239572636132924 7.247654144807188 116 59 16 1.5742505596181728 2 4154 1 3481 8 8978 7 3859
531 6.005351519815724 1.7608263037558045 6.878734872474106 143 93 34 0.00023902481602921955 2 4150 1 7787
530 4.7638296269197795 1.8150977701753643 7.295252441195541 127 69 22 0.6869240882561849 2 4145 1 3486 8 3681
529 5.630628407343771 1.7547970115051392 6.991153481505252 87 45 17 0.15897363848813711 2 4142 1 2621
528 2.4205744223628853 5.34195238135168 8.056481019333875 25 27 13 1.0902762559227246 2 4132 1 5332
527 2.1620569346833256 5.38658470939157 8.1269961311608 90 99 82 1.8768348236262657 2 4131 1 6840 6 4320
526 2.0582621593902326 5.492632816342128 8.163529987842661 108 119 105 1.50406471174137 2 4100 1 6578
525 2.8005938746737256 5.338305310466636 7.952328119827187 230 247 221 0.37807222046180505 2 4094 1 6940 8 4683
524 2.579782846713339 5.006412410336434 7.975529916460219 84 67 56 0.9640588583968316 2 4077 1 4591 8 4577
523 5.988922940793768 4.583579196059402 7.1320745239254935 26 23 4 0.147724791055596 2 4029 1 4626
522 5.985972180913228 4.680043326608472 7.157025013069506 36 30 16 0.8888858289804055 2 4026 1 4638
521 3.097364270759148 5.596679421551751 7.88805738162356 94 118 120 1.9806273644502774 2 4023 1 6476 7 2840
520 2.613331769265439 5.6388310751388895 8.049843067745927 95 99 85 1.3353166682312168 2 4003 1 4947 6 4354
519 3.8159598226336544 5.498265762286574 7.714095873118396 49 37 21 0.6725473202880636 2 3971 1 4931 8 4644 7 4601
518 3.1253456475274612 5.443006484242386 7.8858098753789205 152 163 155 0.4738198247560115 2 3969 1 4924 8 4650 7 4581
517 2.2429205436917052 5.552375059623593 8.095484069159406 82 93 87 2.3069368857823402 2 3964 1 6911
516 3.457810988493928 5.390434831695849 7.814059742899247 62 34 1 0.5373500634742583 2 3962 1 6939
515 3.0786637893032918 5.436706822411417 7.890734275015056 180 196 186 0.6684778546621762 2 3961 1 6833 7 4580
514 2.3943501575437196 5.5464833784274035 8.10672364227528 89 100 90 0.9365575152167018 2 3954 1 6489
513 2.870041367312541 5.4262167639058685 7.9155993385491765 153 164 152 0.4876509044668494 2 3952 1 6883 8 4640
512 3.1178536221091258 5.454728241451568 7.825954134725666 100 113 105 1.0646704589807319 2 3933 1 4937 7 4497
511 3.3333172014207917 5.4638105326987585 7.8651100087759716 25 19 1 0.7123501160153117 2 3927 1 6828 7 4582
510 3.2906957981866425 5.448749320490574 7.859213443149801 21 12 0 0.6225617467419741 2 3924 1 4922 7 4577
509 5.109750078860079 3.7653989406619317 7.259634287360851 120 65 1 0.34094635645871163 2 3910 1 6157 7 7115
508 4.292308157329872 3.8127640374734573 7.5144769499483175 63 27 7 1.476972217679553 2 3897 1 2866 8 1903 6 8718 5 8353
507 4.195173767262538 3.795038770237409 7.518092715067831 101 59 19 0.7518370683694808 2 3890 1 4535 8 5500 6 7189
506 5.26851932535313 3.767135714418427 7.209547481398856 110 62 0 0.4043536799172302 2 3862 1 6100 7 7114
505 3.502827084441394 3.658567775411402 7.692114805640785 115 81 44 0.5166534576593795 2 3857 1 6101 6 8361
504 5.121649586606805 3.4584539343318474 7.250901862148862 112 71 39 0.4881898655916161 2 3855 1 4748 8 5469
503 4.897125248484204 3.493968698883301 7.335427108648044 115 75 38 0.3531854259096015 2 3854 1 4756
502 3.7769795002660236 3.584429750793372 7.621923841420172 104 54 2 0.4124039521290725 2 3852 1 4729
501 3.306830049981884 3.568366609319632 7.688263796072905 132 95 44 1.6327070102061678 2 3846 1 4566 7 4936 6 7166
500 5.484641374415844 3.3621710628487325 7.190547557146819 89 48 2 2.2049484430585875 2 3842 1 6071 5 8242
499 4.8178077949898785 3.6664264604338763 7.3308465513382135 155 104 38 1.2155892376661095 2 3826 1 6201 8 5546 7 5271
498 4.457189114358584 3.662927127109661 7.4508318159974625 150 102 36 0.5941760033641824 2 3819 1 6196
497 5.086948320670276 3.507159078847949 7.218186198257256 69 34 4 0.380618485536135 2 3805 1 6178
496 2.5418880633524568 4.508601944828568 7.996410459074005 103 77 59 0.21766706873840538 2 3781 1 1762 4 5462
495 3.716301246129494 4.580660794042552 7.741844905672113 65 32 11 1.171322761795252 2 3756 1 2897 8 6449
494 5.761363974321065 -1.5038252101901555 6.7633673911145245 142 122 109 0.9615039293287254 2 3687 1 7086 7 4364
493 3.849357269891794 -1.728807185034052 7.28745172013977 178 160 150 0.7821191734210087 2 3683 1 7072 8 4020 6 5987
492 5.7810898601573575 -1.7431536805854118 6.739340263273964 136 117 103 1.4426021595330283 2 3666 1 7610 7 4329
491 3.6909643816574613 -1.505365319120546 7.372173225758515 171 149 138 0.7383025310414454 2 3663 1 6980
490 5.493081352794822 -2.1990727714444134 6.81727311995807 106 94 80 0.6493278703293255 2 3635 1 3741
489 4.291496014565419 -2.336938673759083 7.155246815958757 102 88 77 0.8856234239860616 2 3633 1 7562
488 4.408046916309071 -2.302222427480073 7.073558840726092 101 87 74 0.8567099503405502 2 3625 1 7565 8 7789
487 5.05501063054986 -2.259262684879391 6.968073084778444 101 87 78 0.7616425295441505 2 3621 1 3609 8 3909
486 3.8871869411857474 -2.378691208206791 7.20823478821039 53 43 34 0.7192729518075822 2 3614 1 7755
485 3.8485795384599677 -2.3963458496628354 7.25606009082475 54 44 35 0.6239232503372965 2 3613 1 3607
484 3.899595283632822 -2.38472463331162 7.2776457384392295 100 86 77 0.5868481487590724 2 3608 5 4804
483 5.8110994853450455 -2.0143233062217796 6.726160709663441 119 103 90 0.39387007324780876 2 3580 1 7701
482 2.7148861817406575 -1.053644500613192 7.62647124028035 183 136 116 0.4291399240680768 2 3578 1 1409
481 2.678592077813325 -1.1327094881256792 7.632751716123426 169 147 139 0.8899498030435206 2 3569 1 7015
480 3.9108475740743565 -1.1043243233610278 7.288324917446186 212 186 153 0.6633827184657277 2 3561 1 7001 8 7431 6 10157
479 6.074904469275709 -1.0356516609900195 6.733587209009807 205 176 143 0.40139934564326224 2 3554 1 3966 7 2562
478 3.5019080997061964 -0.8440681081995095 7.4527059258917765 172 132 104 0.8381642820721215 2 3549 1 4053 8 4123
477 3.6701224737017792 -0.8528953993398979 7.386801948954738 202 165 136 0.3099395422476726 2 3548 1 7256
476 3.647337700021621 -0.8608140964931144 7.3932243322938 165 133 108 0.6887246475195599 2 3547 1 4050 8 4120
475 3.001097688067058 -0.9126067085423093 7.544119933921108 190 149 117 1.0104316638959319 2 3543 1 989 6 1962
474 3.049552735581726 -0.9608662007592207 7.529882213148656 185 148 130 0.9349302577351579 2 3534 1 4048
473 3.8986622255948893 -0.936230328029583 7.316331355914631 208 177 148 0.5688227405323943 2 3533 1 7273 8 7319 7 2747 6 10099
472 4.0855974850958345 -1.3018490213745728 7.259284259985592 179 143 127 0.032259596208089075 2 3471 1 3954
471 3.1785125591091283 5.439844928357312 7.896450356862056 16 17 3 1.4258505200972933 2 3461 1 6847 8 6672 7 4632
470 5.4334393552969225 3.7176966013064967 7.160630403080996 86 45 1 0.9078994079130356 2 3444 1 4563
469 5.318665719772128 3.696031619942239 7.193122919609608 96 54 14 0.19981063739467264 2 3443 1 6200
468 5.007310529508498 -0.19413319326994236 7.066546706605852 157 125 107 0.4854611675127223 2 3407 1 8379
467 3.063576317407619 -0.4298477119587271 7.565280691322925 168 137 119 1.098294369250046 2 3403 1 3874 6 5750
466 3.8355062524332086 -0.5670920276277083 7.378359039728814 159 110 70 2.0655091265255954 2 3402 1 7337 8 7341 6 10300 6 10304 5 3786 4 9241
465 2.4850420252351535 3.1193067533565513 7.903029917666545 250 253 216 0.3965239348843723 2 3379 1 4673
464 5.281113200599511 2.4068407738686233 7.153528068829708 106 63 20 0.09456049992329918 2 3377 1 2210
