# .PCD v0.7 - Point Cloud Data file format
VERSION 0.7
FIELDS x y z rgb
SIZE 4 4 4 4
TYPE F F F F
COUNT 1 1 1 1
WIDTH 912
HEIGHT 1
VIEWPOINT 0 0 0 1 0 0 0
POINTS 912
DATA ascii
4.749088764 1.069458127 7.305958748 9.291891007e-39
5.193710327 0.9721350074 7.060364246 1.205632357e-38
3.794551373 1.894424915 7.599713802 6.917120308e-39
4.702260017 1.911552429 7.330934525 1.463812771e-38
6.673364639 1.394236088 6.142071247 1.885026694e-41
5.521273136 1.354660988 6.976073742 1.242616267e-38
4.583929539 1.430822134 7.284660816 8.37139346e-39
4.67854166 1.600098252 7.327785969 7.638148624e-39
6.948572636 1.729201078 6.024349213 9.781063281e-42
3.867047787 2.691919804 7.679896832 7.555268826e-39
6.94312191 1.520964265 6.092184067 6.574093654e-39
5.021043777 1.943923354 7.173961639 9.477351457e-39
6.625656605 1.713191986 6.201714993 6.103732411e-39
6.870071411 1.623796225 5.984908581 2.698246436e-39
6.295617104 1.863328218 6.733216286 8.279902683e-39
6.649590015 1.617420197 6.047643185 1.666984653e-41
6.368720531 1.586218119 5.942092896 9.66390492e-39
6.740666389 1.541881442 5.976218224 6.575175457e-39
6.805896282 1.524316788 5.952012062 7.037591338e-39
3.712980747 0.8446859121 7.440654278 7.194438676e-39
6.769490719 1.066889644 6.708897114 1.114046152e-38
3.362130642 0.9795023203 7.572314739 2.093051273e-38
3.266077518 0.9812965989 7.597122669 2.268260524e-38
5.941633701 0.1143588424 6.510336399 1.815098818e-38
6.034446716 0.4125401378 6.670760632 1.077389165e-38
3.379190207 0.7932844758 7.548185349 2.258789709e-38
3.291701794 0.766600728 7.589588165 3.050702427e-39
6.714114189 0.8905515075 6.563657761 1.307224534e-38
4.876049042 1.335453272 7.258020401 9.485298221e-39
4.441011429 1.371477962 7.384813309 7.915091443e-39
7.25552845 3.756936073 6.738247395 1.060069116e-38
7.163207054 3.740436554 6.733669758 1.133753033e-38
7.066281796 2.180699587 3.93911624 1.624764651e-38
6.153963089 3.668374062 7.136944771 3.125635461e-39
7.107688427 1.845321298 3.712285995 2.158132058e-38
6.266140461 3.844679594 7.116363525 7.088223055e-39
6.97766161 2.276119471 4.371665001 1.196390794e-39
7.094951153 2.074528217 4.014032841 1.275455837e-38
6.977575779 2.256547213 4.379437447 2.212895362e-38
6.010298252 2.802177906 6.975749493 1.104357855e-38
7.160876274 1.588022947 4.323311806 2.054091252e-38
5.129585266 2.934328079 7.311950684 9.296576949e-39
6.163417339 2.786231518 6.911980152 1.012414599e-38
4.441021919 2.877281666 7.537959576 1.059020104e-38
6.924810886 2.926822186 6.657044888 2.580367808e-39
7.087135792 1.86977613 4.327657223 1.6150395e-38
6.992917538 2.840958118 6.641457081 1.019186794e-39
6.980751038 2.79617548 6.606400967 1.030732092e-39
6.673935413 -2.940065861 7.042847633 2.018215209e-38
4.511636734 -3.11487627 6.603776932 9.306698527e-39
7.373897076 -2.305807114 5.902989388 2.092153041e-38
4.788251877 -3.068485737 6.55908823 1.658075758e-38
4.624124527 -3.236707449 6.637213707 8.846442047e-39
3.762841463 -3.662047386 5.962632179 1.475203506e-38
4.993359089 -0.2739084959 6.928229809 1.132311517e-38
4.657774925 -0.4669949412 7.081320286 1.271433409e-38
6.601054668 -0.683645606 6.30407238 1.731252825e-38
3.7304914 -0.3878832459 7.294235706 1.242652981e-38
5.479706764 -0.5868454576 6.697788239 1.593106236e-38
4.798359871 -0.5107952356 6.90021801 1.214998776e-38
5.050776482 -0.3803944588 6.895661831 9.572096049e-39
4.691434383 -0.3666806221 6.996721745 1.151038049e-38
4.741512299 -0.4090098143 6.975836754 1.307264891e-38
6.831158161 -0.6424201131 6.195018291 1.261490636e-38
4.683254242 -0.4262145758 7.03593111 1.179201066e-38
5.563497066 0.06205368787 6.728334904 7.82182382e-39
4.985664368 -0.1820642203 6.903643608 1.353254946e-38
6.883648396 -0.199692592 6.295234203 1.20620787e-38
6.833138943 -0.203097105 6.300125599 1.510524495e-38
6.854877949 -0.2144905925 6.309619427 1.12330355e-38
5.007882118 0.02541013807 7.051672935 1.076596731e-38
5.556444645 0.1250234693 6.751017094 1.897461116e-38
5.816831589 0.07382480055 6.663454056 1.132344728e-38
6.67752552 -0.1975870728 6.350994587 1.45481125e-38
5.216605186 -0.06653183699 6.827228546 1.076737701e-38
3.223020554 0.1500596553 7.5455513 1.362146465e-38
4.188920975 -0.9942569733 6.965250969 1.325812618e-38
6.69842577 -1.281250596 6.148488998 1.743109772e-38
5.327804089 -0.9830858707 6.679249763 1.3075544e-38
6.664309025 -1.324376106 6.217640877 1.105263374e-38
2.848851442 -1.097209096 7.485255718 1.261093929e-38
2.904922009 -1.178893089 7.445003033 1.666502606e-38
3.57492733 -1.250472307 7.199704647 4.146243172e-39
4.447469234 -0.7313555479 7.051613331 1.483375738e-38
4.764295101 -0.6105184555 6.917071342 1.602433699e-38
6.624729633 -0.7866826057 6.293094635 1.685010396e-38
4.765113354 -0.7721912265 6.847342491 1.918282449e-38
6.976944447 2.693897247 6.633024693 1.484635506e-38
3.404141665 2.465773582 7.798653603 2.259074032e-38
7.088407516 1.974396348 3.905237198 3.921295532e-40
5.93287468 0.5111065507 6.714619637 9.206567344e-39
7.089199543 2.134876966 3.958261728 1.29364441e-38
7.257352829 2.120849371 4.06003952 2.508696997e-39
7.073390007 2.084311247 3.992162704 1.284495753e-38
7.013363361 2.28482604 4.381300926 1.59535504e-38
6.95889473 2.923164129 6.634910107 1.474032861e-39
7.100902557 1.815252304 3.780515194 2.082181541e-38
6.748157501 1.564406633 5.980439186 2.990174741e-40
5.170318127 0.3520019352 6.984946728 1.021711233e-38
5.318703651 -0.3909565806 6.756981373 1.316483193e-38
5.204230309 0.8371300101 6.952836037 1.509984855e-38
2.695748329 -1.32719326 7.553443909 1.13267109e-38
7.05422163 2.019139051 4.014637947 1.515128461e-38
7.054543018 2.366533995 3.946897507 1.706581284e-38
6.720171452 1.442833781 6.07293129 3.353384297e-39
6.85067749 1.330263138 6.06841898 2.07914857e-40
4.417228699 1.308119655 7.37698555 8.469348426e-39
5.017069817 2.111493111 7.255932331 1.169184584e-38
6.663003445 1.600614548 6.067964077 4.357791596e-39
5.291356564 1.955517054 7.137073994 1.279638432e-38
4.628411293 1.407432675 7.274773598 8.002260616e-39
3.479114532 1.536065102 7.6410532 3.135705192e-39
4.640211105 1.725434542 7.368024349 8.83562122e-39
5.980784416 2.845213652 6.979230404 1.021598148e-38
4.917205811 3.084091425 7.446595669 8.931408378e-39
5.952206612 2.854112625 7.177086353 1.436369882e-38
5.200122356 2.925228357 7.386906147 1.086100477e-38
6.007545471 2.763340473 6.926783562 1.371904267e-38
6.930345058 2.859593153 6.627613068 2.13779151e-39
6.920593262 2.686335564 6.674276829 2.581092279e-39
6.147861004 2.18042922 6.941055775 7.453032893e-39
6.742928505 1.784469724 6.087457657 1.013419049e-41
5.373848438 -0.9243421555 6.678457737 1.538042353e-38
4.410914421 -1.061969161 6.98365593 1.436987434e-38
5.39374733 -1.071036458 6.653343678 1.409616432e-38
4.582385063 -0.6079247594 6.967786789 8.373918599e-39
4.545971394 -0.6558961868 7.046465874 7.453764371e-39
6.671473026 -0.9377675653 6.262551308 1.731432612e-38
4.509081841 -0.7344467044 7.044121742 1.602361112e-38
4.467904091 -0.7769206166 6.958415985 1.639383417e-38
6.827065945 -1.009377122 6.156585693 1.372235394e-38
6.878601074 -1.610081196 6.131764412 1.907220179e-38
2.961649179 -1.150154948 7.350810051 1.32530717e-38
6.708095551 -1.505324721 6.162257671 9.300915369e-39
2.942588806 -1.216713309 7.434431553 1.648243687e-38
6.831938744 -0.3383778334 6.276034832 1.630199027e-38
6.01798296 -0.7205069065 6.443105221 1.528892995e-38
6.820861816 -0.3882505 6.243074417 1.657929042e-38
5.493454456 0.09864411503 6.797801495 1.187335043e-38
4.889622688 -0.4150587022 6.918737411 1.50083872e-38
4.891327858 -0.4968558848 6.875820637 1.399712335e-38
6.643120289 -0.7814217806 6.261793613 1.426972074e-38
6.906521797 -0.5265008807 6.266336918 7.451607772e-39
6.654744148 -0.5599865317 6.311304092 1.482505532e-38
3.675608873 -3.276117325 6.811173439 7.187285047e-39
3.216534615 0.8292580843 7.614433289 2.259003267e-38
6.739950657 0.1332921386 6.382943153 9.663916131e-39
2.599196196 -2.226202965 7.370538712 1.630923919e-38
5.582053661 -0.0491983816 6.75318861 1.196522656e-38
7.100486755 1.774533987 3.80581665 2.31324753e-38
5.463326931 -0.7198498249 6.680987358 1.215249188e-38
3.756915569 -0.3557657003 7.298743725 1.509983594e-38
4.100717068 1.663379669 7.475769043 8.466100216e-39
6.630528927 1.578314543 6.118956089 4.851785738e-40
7.153775215 1.186011434 4.156835079 9.185375508e-39
3.688744307 2.576530933 7.742480755 6.900220649e-39
5.853447914 2.635607243 7.039443016 6.995660284e-39
5.792495728 2.655325413 7.109003067 6.993855412e-39
7.214970589 1.317804456 4.166101933 2.061617206e-38
7.202795029 1.280518413 4.17181778 1.914789433e-38
7.148616791 1.231454372 4.208909512 8.915278031e-39
5.00702858 1.379745722 7.119952202 1.076773855e-38
5.637223244 1.012121797 6.85158968 1.436154222e-38
5.576063633 0.9863600731 6.864629745 9.201133109e-39
5.96167469 0.9106468558 6.735790253 1.113580781e-38
5.631099224 0.8763195872 6.879255295 1.12287181e-38
4.664718628 1.822858572 7.331649303 1.390055286e-38
5.589434624 1.623685837 7.007090569 7.729625388e-39
4.297179222 1.833875537 7.595134735 6.720875465e-39
4.178024292 1.636718273 7.475231647 8.924194493e-39
4.232300758 1.590661049 7.401572227 9.292260949e-39
6.329265118 2.213178635 6.016999245 1.12341173e-38
7.142397404 3.771886826 6.771754265 1.613061988e-38
7.03468132 2.241749525 3.982728481 1.412246249e-38
7.221808434 1.542020082 4.00729084 2.057042387e-38
7.191696644 1.711093426 4.390045643 1.470808473e-39
6.909554005 2.7333529 6.638632298 9.367357935e-40
7.141330242 1.637775302 4.038536549 1.751216564e-38
6.926916122 2.769244432 6.651103497 1.486656318e-38
6.97514677 2.724131823 6.618690491 1.939352233e-39
4.464402199 -0.8759620786 6.985857964 1.436338773e-38
2.706232786 -0.8863500357 7.651968002 1.233941108e-38
6.773579121 -1.269155145 6.165198803 2.581809744e-39
4.059819221 -1.079310894 7.057979584 1.556445886e-38
6.780827999 -1.332334161 6.178361893 6.360748766e-39
6.742378235 -1.24954927 6.160315514 2.185604234e-38
7.018422604 -0.8855679035 6.137998581 1.418549149e-38
4.844666958 -0.9084527493 6.865844727 1.510383384e-38
3.296711445 -1.594362259 7.24204731 1.547261636e-38
4.332178116 -1.170509338 7.006394386 1.270892788e-38
3.540700912 -1.146963835 7.207758427 1.381562296e-38
3.87915206 -1.196233869 7.112905025 1.353759834e-38
6.761320114 -1.466300488 6.140326977 4.240252082e-39
5.482927322 0.4410490692 6.831291199 8.375733281e-39
5.843647957 0.3461026549 6.729037762 1.298044908e-38
5.573866844 0.1028924584 6.811563015 1.012273908e-38
5.200246334 0.09716174752 6.747958183 1.1320562e-38
5.794421673 0.4150109291 6.812220097 1.178984705e-38
5.986996651 0.4112173617 6.679060459 9.302019592e-39
5.965095997 0.4400008321 6.692477703 8.932156671e-39
6.042747498 0.4441409409 6.706354141 7.546327141e-39
6.580023766 -0.6357535124 6.322947502 1.491508735e-38
5.750071049 -0.5760991573 6.636386871 1.252200728e-38
5.099211216 0.1886578798 6.937189102 9.477735413e-39
7.021558285 -0.761557281 6.143592834 1.492125026e-38
5.603974819 -0.133454144 6.672048092 1.629874346e-38
6.61822319 -0.5599507093 6.279920578 1.334776164e-38
5.114385128 -0.3135911524 6.889840126 1.17862331e-38
6.722396851 -0.4478776455 6.273366928 1.547257993e-38
4.96236515 -0.3360649347 6.874821186 1.049478803e-38
6.257594109 1.501734972 6.753065109 1.205846476e-38
5.248594284 1.605446339 7.097846508 1.104429881e-38
5.278308868 1.567452431 7.08947134 1.343958452e-38
4.530686855 1.60626781 7.121525764 7.364105091e-39
4.690907001 1.494608641 7.208359718 6.629051179e-39
3.135159969 1.731617808 7.797328472 1.021817031e-38
4.760643005 1.443144679 7.283369541 7.091478271e-39
7.194948196 1.198519826 4.179181576 2.347100939e-38
6.092793465 2.1659863 6.828373432 8.191322403e-39
4.15065527 2.025043249 7.557889938 2.128639069e-38
5.813607693 0.6332606673 6.754364967 1.215213175e-38
5.269927502 1.292898893 7.069606781 1.445121131e-38
6.224534512 0.339872092 6.576004505 8.835975749e-39
7.090829849 2.154496431 3.905409813 1.799974884e-38
7.199486732 1.225176692 4.16879034 8.081525063e-39
7.086337566 1.825242162 3.747886181 1.935282442e-38
7.073117256 2.318308592 3.954068661 1.92810415e-38
7.232300758 1.283357859 4.139027596 2.338998351e-38
7.078570366 2.921205044 6.638011932 2.021457113e-39
6.948194027 2.903946877 6.652135372 1.394745572e-38
7.067524433 2.853516817 6.585762501 9.300527209e-39
6.055211544 3.080189466 7.06133461 8.101280569e-39
7.174166679 1.830866575 4.8681283 1.394776401e-38
5.929611206 3.044693947 7.083297253 1.114737693e-38
3.346064091 -1.13150239 7.313653946 1.639131324e-38
4.569186687 -1.243196368 6.896125317 1.510456111e-38
6.734492302 -1.436048508 6.148025513 2.286694606e-38
6.694435596 -1.458105445 6.159165859 3.135370281e-39
5.793094158 -1.400453687 6.429956436 1.336186711e-38
6.732566833 -1.492136002 6.138044834 2.13950726e-38
4.148833275 -1.379814744 7.088162422 1.64827844e-38
2.907437801 -1.320638776 7.416949272 1.760071649e-38
2.973920584 -1.384388804 7.55854702 1.530770595e-38
3.965927601 -1.476006627 7.078481197 6.349588825e-39
6.87791872 -1.714011312 6.017303944 1.381743625e-38
5.83452034 -1.5294801 6.44114399 1.133682267e-38
5.758681774 0.09941036254 6.758213043 8.742698316e-39
4.566746235 -2.51422596 6.713298321 5.525245576e-39
5.484995842 -0.4920682013 6.736795425 1.2519115e-38
6.609076023 -0.6354932785 6.311309338 1.703594136e-38
3.75994873 -0.4500402808 7.28121376 1.537462496e-38
4.616313934 -0.5701665282 6.994361401 8.83346322e-39
6.938920975 -0.8457837105 6.192176342 1.132634937e-38
6.632282734 -0.09701029211 6.352871895 1.463885218e-38
3.199460745 0.1258566082 7.552203655 1.08570405e-38
5.052194595 0.236445263 6.961527348 1.353252424e-38
3.231071949 -0.0004739908036 7.51842308 1.196049998e-38
6.708600998 -1.260314345 6.171077251 3.688537054e-39
6.75302124 -1.300614834 6.177229881 2.249927757e-38
6.634479046 -0.8278295398 6.286391258 1.675898313e-38
6.713313103 -1.323827267 6.188458443 1.937545959e-39
3.318084717 -1.076587796 7.329230785 1.408354563e-38
4.467029572 -1.19730413 7.02268219 1.307445799e-38
3.384094477 -0.5223841071 7.400234222 1.482179029e-38
6.631761551 -0.8680167794 6.279786587 1.758801932e-38
1.97786665 3.391706467 8.388807297 3.76633154e-39
6.925951958 -1.011588812 6.157111168 1.178804638e-38
0.7198086381 0.7997751832 6.420377731 1.10425598e-38
4.897845745 -0.8391878605 6.845234871 1.565735654e-38
4.990107059 -0.6633374691 6.909401417 1.399752272e-38
4.798404694 -0.853793025 6.913293839 1.316556481e-38
4.126055241 4.625536919 7.275368214 1.475896308e-38
6.952218056 -1.082843304 6.241178036 1.206463748e-38
4.388006687 4.723779678 7.162077904 1.457637249e-38
6.810316563 -1.066995502 6.17643261 1.713140762e-38
4.039482117 -1.244709134 7.108706474 1.924761913e-38
4.547539711 -0.9362997413 6.949267387 1.510239471e-38
1.546868682 -0.9461050034 7.921891689 1.721787194e-38
7.167758465 1.768825412 4.831543922 1.560511894e-38
2.523793221 -0.8886242509 7.476803303 1.409369943e-38
6.684474468 1.224864841 6.27409029 5.287683447e-39
1.733980298 -0.02101139538 7.969223499 1.315618032e-38
7.158886909 1.647438526 3.878093004 2.202685081e-38
6.041040421 -0.3879842162 6.473928452 1.473575197e-38
6.277025223 1.053557634 7.463332653 1.187413796e-38
6.644394875 -0.3648715615 6.328691483 1.408640007e-38
1.837005973 0.1777394861 7.945948124 5.796071728e-39
6.994332314 2.32135272 4.019965649 9.925453075e-39
3.624354124 1.796362281 7.612068653 1.113257361e-38
6.791130066 1.114880204 6.209299088 1.475306922e-38
2.245007038 1.023638964 7.929160595 7.720640262e-39
6.259304523 1.715852857 6.734571457 1.150564691e-38
3.678959846 2.123856783 7.626464367 1.159570836e-38
6.662626266 1.525985003 6.050329685 1.132024951e-39
6.686182976 1.558865428 6.011199474 1.989703689e-41
2.207784414 -2.088120222 7.529435635 1.483341687e-38
6.640716553 1.637889385 6.149372101 2.914266403e-40
5.829024315 -2.558001518 6.088999271 9.389539089e-39
6.679933548 1.606746912 6.038581848 4.632933746e-39
2.029357195 -2.093868494 7.598890305 1.548238481e-38
6.105681419 1.227098227 6.673984528 1.012415299e-38
6.217335224 0.6640461683 5.774769306 1.243052351e-38
2.820593834 -1.052333236 7.453063011 1.261639594e-38
6.284990311 0.6906046271 5.864953518 1.123161879e-38
4.767651558 -0.791590333 6.929368973 1.399500458e-38
4.613527298 1.259387136 7.566943645 1.113907143e-38
3.799567223 1.360895157 7.502127647 4.057312567e-39
4.533673763 1.314251661 7.344172001 1.104759747e-38
6.252038002 0.8776054382 5.879433632 1.25223562e-38
3.75075984 -3.722752094 6.802250385 3.309683403e-39
5.964882851 1.158955574 6.782773495 1.095213401e-38
4.93101263 -2.953955889 6.452293873 1.419058801e-38
3.380018234 1.618968606 7.573754787 1.374031578e-38
3.524074078 -1.226737618 7.19768095 1.455609009e-38
6.21434164 3.774147511 7.179412365 5.340484373e-39
7.030504227 2.339113951 3.98273325 1.596820518e-38
3.757676601 -0.1715733111 7.25949049 1.712639237e-38
7.167676926 1.232683063 4.164727688 2.080311788e-38
3.712515593 -1.249838114 7.152970314 1.602686353e-38
3.651413202 1.018611789 7.243036747 2.35058737e-38
4.105037212 -0.9769448638 7.11694622 1.530231376e-38
2.965869188 -2.403236866 7.291528225 2.322682052e-38
6.637661457 -1.171258688 6.213852406 1.639057475e-38
4.626232147 -0.9941517115 6.959807873 1.003236934e-38
3.355638027 -3.555921078 6.926119328 8.013099659e-39
4.176716328 -0.9322932363 7.107535839 1.465766041e-38
3.32309556 -1.459422827 7.245290756 1.232676437e-38
6.620354652 -0.950976789 6.260881424 1.519165742e-38
1.751410961 -2.084055424 7.668166637 1.695645411e-38
3.220983267 -1.842884541 5.415376186 1.114232104e-38
3.206889391 1.663525343 7.739015579 2.341224314e-38
7.505991459 -2.053400517 5.905902386 1.539090945e-38
3.882743835 1.815961957 7.535633564 1.187085331e-38
3.591418505 -1.563721538 7.125959396 1.946289221e-38
6.067137241 0.2912522256 6.637025833 7.640675165e-39
3.753131628 -2.138277054 7.015556335 3.86069638e-39
3.857537746 0.7818548083 7.415964603 1.408350078e-38
5.553005695 -2.543232679 6.499410152 3.123483067e-39
5.235648155 -0.5200354457 6.766342163 1.593068682e-38
3.529839277 -3.625427008 6.845648289 2.119991376e-38
6.855706692 -0.5946686268 6.246080399 1.501234166e-38
2.9846766 -2.366321802 7.259404182 2.303594826e-38
6.60195303 -0.7467437983 6.308520317 1.307262229e-38
4.60057354 1.72776854 7.351203442 9.021085874e-39
2.711721182 -0.6225808859 7.590692043 1.279754039e-38
6.909683704 1.560314298 5.977026939 5.654661094e-39
1.293546796 -0.08743280917 8.10403347 1.343530215e-38
5.967523575 1.357001066 6.850047588 1.049150479e-38
3.317466974 -1.111870289 7.306279659 1.629627718e-38
7.519613743 -1.295596361 5.99352932 1.59386518e-38
4.054573059 4.746252537 7.576967716 2.266963903e-38
6.168171406 2.690571785 6.978686333 1.41887411e-38
1.228053451 1.417915344 8.365896225 1.002696033e-38
7.069493294 2.0100739 3.966195107 3.430637881e-39
5.684882164 1.518704176 7.020328999 8.919885501e-39
6.994865894 2.072671175 3.953438282 1.422297903e-38
5.659410954 -1.811116457 6.453426361 1.73190611e-38
4.037137985 2.199926615 7.766609669 1.205522495e-38
3.844462156 -1.39366591 7.129489422 1.198796963e-38
2.950979233 -2.133635044 7.321078777 5.98368177e-39
6.176938057 -0.2584142387 6.625039577 1.04911951e-38
2.922805786 -2.061329603 7.291383743 1.696436023e-38
3.117129803 0.8149288893 7.629834175 8.368883734e-39
5.161791801 0.1433891356 6.927064896 1.455573977e-38
3.16176343 1.313153148 7.744327545 1.002947286e-38
5.781882286 0.4863744378 6.804182529 1.621488696e-38
3.860146761 3.053239584 7.75024128 2.110403972e-38
4.841897488 -3.167196512 6.574396133 1.031724632e-38
4.916379452 0.3525296748 7.086762428 1.012419223e-38
5.273775101 0.4738038182 6.854804039 1.611009366e-38
5.860489845 -0.8383089304 6.544399261 1.353723681e-38
6.038994312 0.5064409971 6.789642334 1.417721122e-38
6.632882595 -1.054939747 6.240826607 1.482326306e-38
3.279434443 3.909932137 8.180427551 0
5.922859192 0.6636957526 6.741573811 1.178334783e-38
3.90837431 4.509259224 7.914178848 2.157116817e-38
5.147582531 -0.457423985 6.792581558 1.500945499e-38
1.923854113 -1.896734118 7.653251171 1.612236343e-38
7.156491756 3.747019053 6.717166424 1.613243035e-38
4.28726244 -1.360151649 7.028773785 5.610600067e-39
6.276002407 1.356547117 5.939928055 1.160256071e-38
5.18693018 1.748722196 7.209435463 1.343458189e-38
6.151975632 1.499288082 6.845053196 1.307369568e-38
2.034211874 -0.5671231747 7.793897629 1.630531275e-38
3.455672979 -3.853321552 6.778418541 7.181508895e-39
1.568247676 0.9226250648 8.181384087 1.002694071e-38
7.114962578 1.957099199 3.910524845 8.141904211e-39
1.406846642 -1.223591447 7.907056808 1.731222277e-38
7.141330242 1.706611633 3.860795021 1.929523386e-38
3.330719233 -1.14927423 7.256523609 3.857090839e-39
3.014301777 -1.093423247 7.453333855 6.447562008e-39
3.055446386 -2.296421766 7.236310005 1.722835786e-38
4.437547684 1.280322909 7.325485229 5.152835095e-39
1.381519914 -0.5365949869 7.081745148 1.804687591e-38
6.795536041 1.042807341 6.29204607 1.954830556e-38
6.149318218 2.845875263 6.935264587 1.206025141e-38
-0.2124554068 -1.860702038 7.608346462 2.081488038e-38
6.940690517 2.786482573 6.636845112 2.516674589e-39
2.98268652 -2.438396692 7.290292263 7.175397832e-39
7.031281471 2.667764902 6.664242744 5.800372313e-39
4.25931406 -1.777929306 6.966976643 0
5.132891178 -2.431353807 6.549957752 1.759671859e-38
-0.2438907176 -2.650074959 7.506864071 1.72192354e-38
7.089202881 -1.340007901 6.186217308 1.363521139e-38
4.059158802 3.831929684 7.808336735 1.076918189e-38
5.030311584 -0.7298203111 6.858570576 1.574954377e-38
5.749574184 0.05426893383 6.769503593 7.729284872e-39
4.068862915 -2.073584318 6.981506348 1.981809334e-38
1.096505523 -1.247606874 8.456665039 1.288611507e-38
4.521486759 -1.155185103 6.959798336 1.040295113e-38
6.861784458 1.727263927 6.05240202 1.959596792e-39
2.04595089 0.7447993755 7.990440845 1.186906946e-38
5.085020542 1.77043128 7.180175304 1.325518626e-38
1.925985694 -0.2171712369 7.85858345 1.067414162e-38
5.970486164 0.04564850777 6.77025795 7.73324354e-39
2.947602272 1.618615866 7.829717636 1.298407984e-38
7.079349995 2.941112995 6.614154339 3.863917965e-39
1.506288767 -0.9394876361 7.916771889 1.454345739e-38
6.314737797 0.99155581 5.883651733 1.362687507e-38
0.2115894407 -0.5572038889 7.707588673 1.75808685e-38
6.834568501 -0.4097652733 6.30024004 1.593319514e-38
2.164453983 -0.8349934816 7.758808613 1.657320738e-38
3.298979998 -0.06714291126 7.505644798 1.398984921e-38
5.733896732 -2.402118921 6.641098976 1.474408829e-38
2.056983709 -0.8040639758 7.767843246 1.417829582e-38
6.99895525 -1.095107317 6.238952637 1.243521786e-38
3.019235134 -0.5442952514 7.498015881 9.298421057e-39
1.944665909 0.2761684954 7.949761868 1.251659827e-38
5.621856213 -0.9399899244 6.566574097 1.620693039e-38
2.756262541 -1.432288408 7.581254005 1.630276239e-38
5.027184486 -0.2014420927 7.187391758 1.086356775e-38
1.755318284 0.2662908137 7.926903248 1.242440124e-38
6.831148624 1.430839658 6.086903572 4.734512471e-39
2.060068607 -0.04674088955 7.883693695 1.426685508e-38
5.560874462 -1.873587608 6.792512417 1.704355181e-38
1.137559295 -1.4756037 7.918913841 1.823091684e-38
5.459257126 0.7398635745 6.757263184 1.260984627e-38
2.35774374 -1.083477139 7.679500103 1.279427257e-38
5.500181675 -2.905329943 6.488144875 1.61204997e-38
1.339982152 -0.3342042863 8.048760414 1.22392729e-38
5.626960754 1.414826989 6.960223675 1.177615076e-38
1.077014089 -0.2715142667 8.100476265 1.399136401e-38
4.790463448 1.65936172 7.417683125 2.331650643e-38
1.859704137 -0.560372591 7.84862709 1.767629412e-38
4.68489933 4.674246788 6.92445612 4.987659841e-39
2.11766696 -0.1840103865 7.838168621 1.666250513e-38
5.918726444 -2.159784079 6.27178669 4.048338652e-39
1.073659182 -0.1354825348 8.160948753 1.21463556e-38
4.90808773 0.03305439278 6.915863037 1.13159223e-38
4.730301857 -2.512387276 6.620764732 1.427556275e-38
3.627748966 0.3649449348 7.449479103 1.251660808e-38
4.993522644 2.173538685 7.278516293 9.843287939e-39
0.8059768081 0.2702072263 6.711895466 1.749877763e-38
6.272267342 1.0073452 6.669928551 9.567072394e-39
4.116131783 2.661125422 7.687592983 9.385560802e-39
1.727556586 -0.2798531651 7.940859795 1.454054689e-38
4.942448616 2.985104799 7.400814533 7.546343956e-39
3.587185144 -3.121095419 6.888205528 9.208396039e-39
6.087080956 2.554302692 6.9362607 6.803734243e-39
1.681234121 -2.529286861 7.83211422 1.648750537e-38
4.528328419 -1.219787359 6.916703701 1.721679434e-38
2.002530575 -0.8018718958 7.785154819 1.75891852e-38
3.870904684 1.111852169 7.487061977 1.389700337e-38
2.318606138 -0.1889250427 7.762187958 1.223930372e-38
1.497566462 -0.1529760212 8.033269882 1.786140845e-38
4.346786022 -0.8195405006 7.090233326 1.529475936e-38
1.268791914 -1.786169529 7.861979485 1.999203232e-38
5.384804726 -1.095779896 6.645398617 1.611911662e-38
5.376429558 -1.045017004 6.656036377 1.316777886e-38
5.365691662 -0.9701316953 6.671751022 1.46414628e-38
1.280024171 -0.08041577786 8.11257267 1.316196067e-38
5.035121441 -0.5674210787 6.872741699 9.659636565e-39
3.824581623 -2.104277849 7.024249077 1.760325704e-38
5.367415905 -0.5484429598 6.75002718 1.684801462e-38
1.233441472 -1.169600964 7.973593712 1.934197276e-38
5.326463699 -0.5355814099 6.767321587 1.42687034e-38
5.70899725 -0.7871564627 6.576389313 1.777321913e-38
1.392476797 -1.133107901 7.918983936 1.611404952e-38
5.467302799 -0.7750820518 6.656026363 1.712820986e-38
1.118283749 -1.097782135 8.005426407 1.629844078e-38
5.41698122 -0.7340570688 6.685329914 1.629917927e-38
3.994727612 -1.391845703 7.101846695 1.500952365e-38
5.477934837 -0.6765457988 6.684645176 1.657539621e-38
3.528434515 -1.362308979 7.169410706 2.313893669e-38
4.99079752 -0.6595090628 6.888532639 1.095001245e-38
3.632997513 -1.26153779 7.149444103 2.332545512e-38
4.215979576 -1.296028376 7.03616333 1.306762386e-38
2.832741976 2.908845663 8.061254501 1.251730172e-38
3.615339279 -1.413092732 7.139694214 2.295632227e-38
1.965320587 -0.858112812 7.786582947 1.528536505e-38
6.244003296 0.6411467791 6.623531818 1.011989164e-38
1.852490902 0.3373599648 7.984439373 9.10465371e-39
6.238126278 1.195741653 6.68091011 1.362150529e-38
1.945179701 0.2228563875 7.929430962 1.076273591e-38
5.652997494 0.9294880033 6.874351501 1.666000241e-38
0.9679418206 0.1081267372 8.253837585 8.371429893e-39
6.230553627 0.8537134528 6.656673908 1.306726232e-38
4.010882854 1.629751563 7.547827244 9.108985123e-39
1.379306316 -0.2610746622 8.051137924 1.611257676e-38
3.450263977 1.746097684 7.658037186 6.263889615e-39
1.581133604 0.08128848672 8.053897858 9.10609985e-39
3.436872482 -2.650211573 6.980409145 1.574708168e-38
1.357362509 0.06173593178 8.097759247 1.472604518e-38
5.069661617 1.267214656 7.132362366 1.278994676e-38
2.419839144 1.317425132 7.944464684 1.131660053e-38
5.907726288 -0.06473497301 6.607681751 1.427122713e-38
5.903301239 -0.006713167764 6.617364883 1.427158727e-38
1.266364694 -0.7336263657 8.016101837 1.565560352e-38
3.753602505 -0.01666750759 7.341669559 1.666144435e-38
1.939066648 -0.8109452724 7.799957752 1.89728161e-38
5.289993286 0.4549865425 6.976994991 1.224401069e-38
1.775337815 -0.6164936423 7.87609005 1.565089656e-38
5.729302406 -0.4047162533 6.637087822 1.638920288e-38
2.312902927 -1.081977248 7.679456711 1.602475318e-38
5.907833099 0.5485447645 6.735703945 1.389847474e-38
1.454604268 -1.082893014 7.903977871 1.547264719e-38
5.18950367 0.302505672 6.93479538 1.168757608e-38
1.648384333 -1.04171145 7.883210182 1.675869166e-38
6.089217186 1.401086926 6.794415474 7.356906621e-39
2.669645309 -0.9652625322 7.54462719 1.611910401e-38
3.691499472 1.471577525 7.576744556 1.223784918e-38
6.216851711 0.916452229 6.696418285 1.380733288e-38
-0.2422314584 -2.100783825 7.674108982 1.897960539e-38
5.970668316 1.002641916 6.760750771 1.334385061e-38
1.313611746 0.6140200496 8.201986313 1.380190425e-38
3.867772341 1.015666246 7.476831913 1.518522546e-38
4.158335686 -1.471576691 6.996203423 1.399644372e-38
4.744978428 -0.3889601529 7.040079594 6.990269489e-39
4.208627701 -1.00183022 7.059268475 1.546471444e-38
2.326463699 -0.6278787255 7.704554558 1.565416158e-38
4.635431767 -1.27336967 7.212601662 1.712603504e-38
3.056649446 2.042869568 7.909275055 1.740551141e-38
4.639648438 -1.131241083 6.89778614 1.786360569e-38
5.005500317 1.387906909 7.160347939 1.159534402e-38
6.206682682 0.2561132014 6.512990475 9.935868926e-39
5.437712669 0.7782595158 6.928608418 1.693730116e-38
3.417649031 0.1023065671 7.466563702 1.509193822e-38
1.591049314 -1.056339502 7.868546486 1.887920095e-38
3.708180189 0.5532662272 7.414924622 2.064814128e-38
1.270605206 -0.9480793476 7.989803791 1.593000719e-38
3.784778118 0.3899379671 7.390091896 1.582878579e-38
1.944521427 -1.268302917 7.730493069 1.712964479e-38
4.694547653 -0.6257949471 6.928188801 1.776924085e-38
1.460445642 1.475271106 8.285352707 1.352782849e-38
3.388858557 -0.3108541071 7.41359663 1.5829876e-38
5.708929062 -0.5723638535 6.616701126 1.721860062e-38
4.137195587 3.862633228 7.808492184 1.076848684e-38
6.171833038 0.3189647794 6.563963413 1.482041142e-38
5.658995628 1.525745153 6.968254089 1.398812421e-38
1.193047762 -0.002240003552 8.135883331 1.693943253e-38
5.655456543 1.416508675 6.953116417 1.463277055e-38
3.894816399 1.411267161 7.504077435 1.463564321e-38
1.451451302 0.008624268696 8.071274757 1.306832871e-38
5.676951885 -1.260525227 6.495828629 1.528863708e-38
1.376580358 0.004880269989 8.086847305 1.343711123e-38
4.005609512 -1.214685082 7.051677227 1.850788208e-38
1.442910194 -0.3729550838 8.019791603 1.343965599e-38
4.719260693 -1.06499958 6.88759613 1.786288962e-38
1.750269413 0.5327571034 8.073898315 2.138147159e-38
3.734153986 -0.9849911928 7.207150459 1.786035327e-38
3.464922667 -0.8005375862 7.266685009 1.77739422e-38
1.921659827 -0.9182976484 7.788990021 1.878698991e-38
3.737430334 -0.8222466707 7.231989384 1.730681796e-38
1.814802408 0.1872304529 7.996161461 2.055820314e-38
3.416320562 -1.551580667 7.153140545 1.676196229e-38
3.236239195 3.870278358 8.08259964 9.667555303e-39
4.409971714 -1.315768003 6.974331379 1.795542437e-38
3.609040976 -1.278007746 7.164681435 1.982093798e-38
5.285762787 0.3208020031 6.9407897 1.445272051e-38
5.649589062 1.107004762 6.90310955 1.601353719e-38
3.279428005 2.768320799 7.899729729 9.845817283e-39
5.453859329 1.09297967 6.977272034 1.573874816e-38
1.493984103 -0.6630393267 7.950827122 1.316739771e-38
5.645297527 1.033230901 6.918808937 1.610609435e-38
-0.2046844363 -3.426472664 7.477422237 1.908122615e-38
4.809262276 -0.2087357938 7.030145645 1.021100267e-38
1.681281567 1.087322474 8.170981407 1.076233654e-38
5.637321949 0.9513768554 6.881689548 1.610717055e-38
1.111222506 -0.004020941909 8.164155006 1.270206993e-38
3.805465221 1.032291532 7.392455101 8.095898182e-39
-0.1074409187 -2.828335047 7.531348228 2.174874632e-38
5.978773594 1.5597893 6.867488384 1.325127803e-38
4.51894331 1.773147583 7.406504631 7.634580918e-39
1.690348268 0.9238108993 8.138871193 1.186903723e-38
4.476284027 -1.662723064 6.859372139 1.952203681e-38
1.132110357 -0.3715013564 8.100156784 1.666179747e-38
4.946518421 0.02611117437 6.984636784 1.481754716e-38
0.8968185186 -1.833088994 8.033325195 1.731691992e-38
6.040763378 0.1418919116 6.67457962 9.487889221e-39
7.025407791 4.576183796 6.810918331 7.397258411e-40
4.909142971 0.6464279294 7.084281445 8.551484134e-39
4.793026924 4.695364475 7.675591469 3.965482676e-39
5.215569973 0.6165878177 7.020011425 1.316162156e-38
4.36275053 4.781980515 7.997224808 1.465585414e-38
3.767382622 0.8390026093 7.464686871 3.7735188e-39
4.631570339 1.250317812 7.19018507 1.095001245e-38
5.196017265 0.74501127 7.045889378 1.048866015e-38
4.809104443 -0.6539137959 7.625684261 1.196705806e-38
5.998530865 4.753909588 6.549647808 1.779050135e-38
4.615952969 -0.6807692051 6.93083477 1.592713172e-38
6.104196072 3.629353285 7.082671165 7.731442872e-39
3.930502653 -1.020922303 7.163025379 1.60301706e-38
7.15175724 2.061560154 4.021491528 1.397642477e-39
4.721427917 -0.5318533182 6.956051826 1.242586279e-38
7.011209488 3.336678267 6.708512306 7.178632029e-39
4.023940086 -0.4494698346 7.214796066 1.187702603e-38
6.038533211 2.10605216 6.899937153 1.01216825e-38
4.296148777 -0.9323791862 7.011075497 1.620552208e-38
3.864116669 2.928326368 7.707071304 2.277227714e-38
7.185848713 2.547976971 6.613886833 3.767409138e-39
3.754987717 0.9081746936 7.448650837 2.139005455e-38
4.426720619 1.812363744 7.454021454 1.206032708e-38
6.321686268 2.053768396 5.977203846 1.159788878e-38
4.684866905 1.437879562 7.26174593 1.021244741e-38
5.619710445 4.678688526 7.100436211 2.221371817e-38
4.883433819 1.555128455 7.225832462 9.197199664e-39
6.201951981 4.756895065 6.558918953 1.354878771e-38
4.157044888 1.569188714 7.497956753 8.830589157e-39
4.365976334 4.673047543 7.838810444 2.577146223e-39
5.038952827 2.08688879 7.247050762 9.749650373e-39
4.990519524 4.66074419 7.608728409 3.406532745e-39
4.147942543 1.998051643 7.552672863 1.058230192e-38
4.419674873 4.691007614 7.759815216 1.622534065e-38
4.419770241 -1.276297808 7.002925396 7.354745819e-39
4.880272865 4.663703442 7.652565956 3.312542052e-39
3.635056019 -1.441886663 7.139000416 5.431250679e-39
4.244665623 4.689997196 7.830859661 8.020303735e-39
4.744945526 -1.944428802 6.719848156 1.648500966e-38
4.812529087 4.689991474 7.638635159 2.037558312e-38
3.533675194 -1.314382553 7.203938484 1.391182631e-38
5.031036377 4.682878017 7.602410793 1.262683141e-38
6.107216835 4.633725643 7.200090408 1.931781017e-39
3.80934 0.7871966958 7.446472168 1.214347032e-38
7.06157732 4.476372242 6.840651512 1.411023336e-38
3.67364192 0.839972198 7.474135399 6.162668221e-39
7.882797241 -2.250112534 4.76789856 1.694888709e-38
3.697948456 0.8681468964 7.457406521 1.788445841e-38
6.628936768 -2.291830778 6.06196928 1.694199831e-38
5.038220406 0.4100290835 6.986855984 9.567086407e-39
7.31924963 -2.373521566 5.888327122 1.980836273e-38
4.956633091 0.3792710006 7.010150909 1.159503013e-38
5.461239815 -2.728171587 6.384904385 1.851040582e-38
3.629692078 0.4077297449 7.452672958 1.25148004e-38
7.378137112 -2.785524845 5.763245106 1.548421911e-38
3.793461084 -0.2206570655 7.304785728 1.122587206e-38
6.079796791 -2.801169872 6.13293314 1.225012595e-38
3.567121506 -0.535397172 7.318004608 9.568884273e-39
6.744320393 -2.938385487 5.955339432 1.712784412e-38
4.642279625 -0.6279380322 6.978414059 1.242334466e-38
4.959068298 -0.7459487915 6.856908798 1.519100862e-38
6.059671879 -2.253514528 5.424176693 1.501348933e-38
4.262795925 1.49846983 7.451756001 8.922060316e-39
5.927111626 -2.64070797 6.216831684 1.354050464e-38
5.025969028 2.161334515 7.261474133 1.196269441e-38
7.959657669 -1.054047346 5.761750221 1.353653476e-38
4.016736984 2.93609643 7.691642761 7.359060417e-39
6.072860718 -3.316097021 5.325386047 2.0262134e-38
4.690977573 1.754989266 7.304440022 1.113257221e-38
6.53934145 -3.716062784 5.846049309 5.528140659e-39
5.16502142 1.472766399 7.118851185 1.380480354e-38
4.135826111 -1.710510492 6.954348087 1.45506965e-38
5.411472797 -1.573457003 6.583197117 1.325960455e-38
3.902013779 -1.068805218 7.167582035 1.336117907e-38
7.291042328 -2.09278965 5.516626358 4.413128872e-39
3.574408054 -1.40931499 7.154232025 2.230878786e-38
6.810413361 -2.417998075 6.01304388 2.082468106e-38
4.326872826 -1.320248842 6.97837162 9.935143054e-39
5.626151562 -3.082507372 6.308612823 1.712962657e-38
3.586371899 -1.271995544 7.176641464 2.065034132e-38
3.864488602 -1.264741898 7.049770355 1.685161456e-38
7.968756199 -2.950826883 4.612621307 2.017572293e-38
4.134643555 -1.265156984 7.110292435 1.749663224e-38
5.814725399 -3.237706423 6.215358734 6.907119241e-39
4.902979374 -2.095438957 6.573393822 1.326141643e-38
7.934757233 0.6760243773 6.14140892 8.830575144e-39
3.740613937 0.818002224 7.428918362 2.277153165e-38
4.845610619 -0.3183750212 6.897368908 1.472570746e-38
4.977410316 0.08138788491 6.948825836 1.094786286e-38
6.160076618 -0.3555940092 6.659584045 1.454525385e-38
4.582443714 1.063555121 7.287333012 8.277055244e-39
5.701921463 -0.398142159 6.65068531 1.159285672e-38
5.012235165 0.6142926812 7.03421545 8.277437799e-39
8.029654503 1.104768634 6.216124535 7.448002231e-39
3.972731113 -1.124876618 7.087331295 1.629843798e-38
6.951562405 0.06817383319 6.322229385 1.583708428e-38
5.084951401 -0.5327777863 6.842532635 1.509916752e-38
4.401679039 -0.7735253572 7.073651314 1.372346237e-38
4.835508347 -0.2545618117 6.958585262 1.408285759e-38
4.444357872 4.729851723 7.070490837 6.27912313e-39
3.84898901 -1.129749417 7.155403137 5.517332444e-39
4.708402157 -0.3733882308 6.99255085 1.205960962e-38
4.530588627 -1.093469739 6.981820107 1.06748787e-38
4.743992805 1.238318563 7.224635124 8.73587119e-39
3.685741425 0.1061527207 7.361321449 1.659548523e-38
6.902573109 0.5563682318 6.390367031 1.408174356e-38
5.191976547 0.200282529 6.932868958 1.407996811e-38
6.852588654 2.413926125 4.342691898 1.012732413e-39
3.908985853 -0.7928326726 7.161577702 1.09547096e-38
4.694280148 4.7814188 6.942146778 9.493975061e-39
4.449163914 0.8885117769 7.341881275 1.196270002e-38
5.701046944 4.674279213 7.273488998 8.660255724e-39
3.90625906 -0.8443357944 7.16237545 1.09547138e-38
6.04208374 4.642472744 7.241354465 2.206925971e-39
4.889861584 1.235029936 7.275640965 6.530394162e-39
7.155884743 2.16433835 6.54898262 1.840535468e-40
5.198350906 0.8587957025 7.059837341 1.426652017e-38
7.150355339 1.253620863 4.187523842 8.909504682e-39
3.800130606 -2.14074564 7.01085186 6.627633065e-39
6.319579124 1.693096876 5.958795071 8.647984553e-39
4.098535061 2.08894062 7.575419426 1.076415823e-38
7.112503052 1.744497776 3.975497961 2.175640161e-38
4.421675682 -1.625859499 6.880444527 1.316958093e-38
6.273017406 0.0282694418 5.762307167 1.223965825e-38
5.157137871 0.3850930333 6.965939045 4.138009142e-39
7.737663746 -0.1288812608 5.745998383 1.114016304e-38
4.195003033 -1.814903021 6.923577309 1.887991281e-38
6.812852859 -0.01976771466 6.230079174 1.39935164e-38
4.354440689 -1.263504267 6.993043423 1.592351357e-38
4.522507191 -0.6488549709 6.859874249 1.316704739e-38
3.924415112 -1.221206903 7.077236652 1.712784692e-38
5.153972149 -0.5159055591 6.825620651 1.214746542e-38
3.899759054 -1.152386427 7.10977602 1.648283625e-38
5.23371172 3.710957527 7.419764042 9.572833132e-39
6.04498291 1.165041804 6.785533428 8.002274629e-39
3.918688774 1.928202629 7.561085701 1.361788434e-38
6.782477856 0.9904174209 6.237641335 2.323073715e-38
4.819534302 1.372840285 7.265319824 4.874475563e-39
8.014863968 1.089662313 5.990559578 8.833817749e-39
5.253065109 3.209378004 7.364460468 7.450894511e-39
6.007969856 0.8672863245 4.238259792 1.25180374e-38
5.013516903 -0.01675658114 6.930435181 1.048868257e-38
5.994936466 0.495124042 6.755422592 4.870160965e-39
4.60386467 -0.9166420102 7.756798744 1.417542877e-38
6.898435593 0.5193200111 6.415215492 1.426830262e-38
4.665141106 -0.5395253897 6.94987011 1.52806749e-38
5.217045784 0.6586257219 7.026418686 1.288394025e-38
4.635695934 -0.7176111937 6.935445786 1.58349417e-38
5.802442551 0.2435472757 6.665657043 1.251443887e-38
4.548045635 1.112151146 7.300656796 8.739471126e-39
7.632753849 0.7215912938 6.284430981 9.756149596e-39
3.694911957 0.9085812569 7.489511967 2.175560147e-38
5.02196455 0.3760496974 6.995363235 1.242406633e-38
6.319170475 0.5764493942 5.811301231 1.417720842e-38
3.695401669 0.8171973825 7.468746662 1.908515399e-38
8.065143585 1.077155352 5.944663048 9.203327542e-39
4.828385353 0.9977480769 7.157950878 1.19612763e-38
7.999249458 1.069130063 6.103607655 1.049045101e-38
4.944375515 1.008125901 7.101237297 9.567452146e-39
6.349419594 1.036496401 5.872167587 1.085742866e-38
4.95033884 0.4199776649 7.028532028 1.205600828e-38
5.014879227 0.4438044131 7.006575584 1.279392645e-38
3.728256702 1.414207101 7.532632351 2.332293138e-38
7.383276463 1.474087119 4.740185738 2.133418057e-39
3.689390182 -1.275397539 7.159810066 1.657611368e-38
4.352315426 2.5715096 7.5133605 7.266867589e-39
3.62232995 -1.292460084 7.157975197 2.249676925e-38
6.308306217 2.101967573 6.771064281 7.724952057e-39
3.567555189 -1.304744601 7.18707943 6.170261858e-39
3.991953373 -1.218436837 7.054993629 1.795724185e-38
5.641050339 2.648721218 7.399322987 0
3.823179722 -1.244638085 7.125239372 1.473076335e-38
5.119142056 2.617674828 7.34829998 1.04004344e-38
3.644595146 -1.25227809 7.17040062 1.56335723e-39
6.624784946 1.434806466 6.125601768 3.153134542e-39
3.554991484 -1.439563036 7.17135191 6.626189727e-39
7.408367634 1.140498996 4.668959141 2.117224792e-38
3.601161957 -1.307708502 7.159147263 1.272150734e-38
7.877956867 1.317160249 6.12643671 1.030714996e-38
5.120645046 2.346666336 7.260796547 1.315978726e-38
4.588637829 1.584816694 7.400418758 7.357984219e-39
4.602667332 1.511007428 7.279535294 7.633130574e-39
7.969660282 1.357986569 6.351919174 6.251270922e-39
3.459538937 1.507892847 7.615724564 2.221911036e-38
5.171067715 1.774332762 7.163335323 1.22392771e-38
3.762541771 1.37261045 7.500952244 1.530299759e-38
3.745790482 1.350706816 7.51067543 7.553525611e-39
6.610719681 1.616663218 6.3758955 2.176357626e-38
4.692716599 1.380356789 7.245194435 1.085529868e-38
5.376507282 1.78292191 7.064421654 9.749630755e-39
4.254053593 1.795351744 7.450611115 1.178048498e-38
7.076880932 1.897830486 4.058979034 9.975364523e-39
3.969248533 2.667678595 7.640309811 1.187158479e-38
5.910653114 -2.101306438 6.374512196 1.382215862e-38
4.555482388 1.319908261 7.338774204 1.279466073e-38
7.070523739 1.866276979 4.406331062 1.677960744e-38
4.390058517 1.416812539 7.41714716 9.201173747e-39
4.366503239 4.832537651 7.096469402 2.064997978e-38
4.401779175 1.80351603 7.459283352 8.279216047e-39
7.908366203 -2.171816826 4.777434826 1.980694882e-38
3.469444036 1.471816778 7.610156059 2.304924238e-38
5.135280609 -2.480482101 6.724192142 1.897318744e-38
3.717134237 1.479721189 7.585380554 1.085635947e-38
5.43790102 -0.7779665589 3.018126488 2.205507857e-39
5.125049114 1.515224814 7.138051987 6.433865717e-39
7.882770061 -1.51710999 5.770997047 1.538117603e-38
4.531787872 1.555906534 7.316943169 1.140882419e-38
4.218658924 -1.861090302 6.9045434 1.611693199e-38
3.97322917 -1.54257524 7.044833183 1.528536785e-38
7.970003605 -1.611147165 5.498337269 1.076849525e-38
3.970892906 -1.762246609 6.989033699 1.823419168e-38
7.64610672 -1.682117939 5.603172302 7.264348055e-39
4.191859245 -1.331207156 7.025276661 1.454455601e-38
3.938563347 -1.474571705 7.085463047 4.776163265e-39
4.27001524 -1.444646955 6.948997974 1.565306857e-38
4.117693424 -3.260033846 6.741851807 7.549950899e-39
4.284932613 -1.423063874 6.944894314 1.869480829e-38
6.678983212 -3.358776331 5.879872322 1.631143642e-38
4.297627926 -2.292459726 6.405399799 1.196706086e-38
5.389918327 -3.26849556 6.420204639 7.8276294e-39
4.572103977 -2.443607569 6.483661652 1.824682859e-38
4.942969799 0.2621055543 6.995463848 9.382335013e-39
6.603996277 -2.823478699 5.946926117 2.035431281e-38
4.985528469 -0.04390810803 6.94905138 1.306871687e-38
4.550633907 -2.797513723 6.669810295 1.703853516e-38
3.753566504 0.7919382453 7.470291138 8.283495612e-39
5.079517841 -3.175569057 6.459342003 8.38080458e-39
5.03081131 0.5259702206 7.01658535 8.645495847e-39
4.519785881 -3.143435955 6.587131023 8.751015023e-39
3.976747513 -1.173707366 7.081551075 1.703564008e-38
4.856616974 -0.2787690163 6.937979221 1.454455881e-38
6.310129642 1.689365268 6.821124077 8.091209437e-39
4.902635098 -0.2914325297 6.945632458 1.343894273e-38
7.743087292 0.4874835312 6.031881332 5.240014076e-39
4.536404133 -0.6340113282 7.057071686 1.307991044e-38
4.333973408 -0.7164313793 7.078169346 1.381385733e-38
4.010300636 -1.235761285 7.052682877 1.841532212e-38
7.132462502 -0.2596033514 4.680467606 6.804085969e-39
4.621274471 1.464301586 7.286081791 9.10538799e-39
4.901993752 -0.2534308434 6.927097321 1.030284797e-38
4.066007137 1.853825569 7.542056561 9.657820482e-39
3.940526724 0.8506714106 7.456253052 1.214783116e-38
5.973293304 0.3583161831 6.65110302 7.636017249e-39
4.849003315 1.31303823 7.278717518 0
5.179331779 0.3747350872 6.934048653 8.099163207e-39
5.457076073 2.763844967 7.648848057 0
6.008299828 0.5994876027 6.685941219 1.00316701e-38
4.379200935 -1.1258955 7.112659454 1.722113416e-38
6.048939228 1.396511316 6.783483982 8.370698416e-39
5.424359322 -0.6771127582 6.697345734 1.445526667e-38
1.510198355 -2.991740227 7.6285429 1.824647686e-38
6.126572132 2.965401888 6.986158371 6.899178083e-39
0.8901734948 -3.185836315 7.846251488 7.1865872e-39
6.114838123 3.113869429 6.975427151 6.714785422e-39
-0.304969728 -3.393793344 7.502390862 1.861520893e-38
5.712832451 -0.1269334704 6.687051773 1.325672768e-38
1.337569237 -0.8300569654 7.985224247 1.804942487e-38
5.861869335 0.4027713835 6.774620533 6.16486826e-39
1.869468689 -1.000652432 7.80197382 1.989261159e-38
5.573318958 1.0891186 6.935983181 1.113367783e-38
1.461263537 -0.7793974876 7.959695816 1.546977172e-38
3.414082766 -3.086220026 6.899661541 8.655232069e-39
1.636149049 -0.9390918016 7.879687786 1.583674377e-38
5.462027073 -0.6327161193 6.689940453 1.408467788e-38
2.380634069 -0.6980329156 7.667473793 1.620913323e-38
5.968924999 2.373188257 6.943892479 1.205705925e-38
1.034187436 -0.7583194971 8.077587128 1.675833152e-38
3.428628922 1.968257785 7.693872452 1.622170007e-38
-0.181640327 -3.496370554 7.457245827 2.762786039e-40
5.421474457 2.830451012 7.16872406 1.592456314e-38
-0.226111874 -3.480816364 7.476192474 1.125728777e-38
4.012495518 2.86071825 7.657665253 1.113257221e-38
4.899230003 2.811565399 7.403349876 1.371296664e-38
0.7884531617 -3.255212069 7.840483665 5.246502088e-39
4.609050274 -0.621617794 6.98445797 1.786216095e-38
5.43045187 3.633105755 7.364126682 1.086283767e-38
5.040244579 1.284641266 7.166403294 1.860010294e-38
1.660611272 2.402180672 8.367362976 1.426866836e-38
3.956756592 -1.188567042 7.091406822 1.83231391e-38
5.239232063 0.6506005526 7.024915218 1.315982229e-38
0.9852229357 0.5043599606 8.307727814 9.016049608e-39
5.564986229 0.7622089982 6.902270794 1.620191234e-38
5.192813396 1.012284517 7.064860344 1.343316237e-38
1.967774272 0.3299379349 7.942896366 1.251445428e-38
5.612466335 0.001731834491 6.750587463 1.611442087e-38
1.280088186 1.541075349 8.355424881 1.343600981e-38
6.013559341 0.516723156 6.715019703 1.279429919e-38
5.053842545 2.422809124 7.293309212 1.131694946e-38
3.775314808 0.5736677051 7.42977047 1.518773518e-38
3.283036709 2.260539293 7.779770374 1.059848832e-38
6.048232079 0.3716170192 6.609288216 6.43640487e-39
5.028301716 2.002322912 7.235805035 1.085561678e-38
3.443566561 0.3904156089 7.525594234 1.444764921e-38
2.541247845 0.6091248989 7.843494415 1.334346526e-38
6.029618263 2.192421913 6.883739948 1.159502172e-38
6.107296944 2.25335288 6.9112463 8.924585456e-39
3.186977386 1.434634089 7.683882713 7.370199338e-39
5.320656776 1.97612524 7.138347149 1.168502852e-38
3.223669291 1.106080294 7.616004944 1.124239337e-38
5.257469654 1.856870055 7.139983654 1.085491333e-38
2.165832281 0.8910399079 8.179369926 9.114034002e-39
4.644916534 1.314453483 7.248076439 9.196867556e-39
5.136995792 1.533655286 7.134233475 1.352856557e-38
4.852200985 1.320350409 6.873301506 2.155072883e-38
3.748575211 1.34376812 7.470945358 7.919424258e-39
6.245391369 1.312255502 6.684897423 1.371190446e-38
2.178534031 1.006929278 8.008359909 1.011590775e-38
5.073688984 1.214471698 7.141832829 1.740479955e-38
3.134364367 3.077080011 8.0349226 2.341228938e-38
6.060624599 1.435643911 6.807017326 9.292294581e-39
2.835655212 1.638317823 7.893159866 1.057650755e-38
3.7286973 1.444086075 7.562183857 5.979012643e-39
1.794841409 1.830977201 8.244908333 1.048718739e-38
5.3903265 -0.7141766548 6.713740826 1.445310867e-38
5.471786022 -0.8446791172 6.649268627 1.555980795e-38
1.875699282 -1.354635596 7.74515295 1.879205e-38
5.467010021 -0.5598790646 6.705441952 1.399247944e-38
1.835394859 0.1279422343 8.007465363 1.270315594e-38
5.504824638 -0.7709267139 6.653181553 1.546724378e-38
4.924672604 -0.7758292556 6.840943813 1.878844446e-38
5.589348316 -0.2271737456 6.724947929 1.509594453e-38
1.297558308 -1.093853951 7.954967976 1.952598707e-38
3.766047001 -0.2392435819 7.313216686 1.583275847e-38
